4230	4171	4192	4188	4151	4152	4160	4214	4294	4315	4248	4160	4165	4211	4347	4382	4431	4439	4572	4687	4757	4643	4681	4860	4925	4856	4787	4569	4485	4484	4480	4481	4487	4482	4470	4459	4471	4483	4474	4481	4489	4494	4503	4513	4538	4709	4862	4667	4558	4479	4483	4553	4661	4855	4853	4712	4514	4476	4480	4520	4720	4912	4859	4676	4483	4632	4762	4595	4444	4413	4421	4424	4385	4562	4618	4593	4770	5094	4949	4827	5144	5034	4865	5134	5205	5658	5728	5808	5856	5717	5604	5501	5603	5896	5896	5809	5851	5740	5905	5753	5761	5568	5594	5603	5129	5382	5783	5650	5460	5428	4994	4875	4778	4737	4911	5018	5374	5783	5992	5774	5507	5495	5809	5983	5773	5880	6030	5821	5580	5569	5897	5935	5752	5681	5507	5165	4866	4917	4985	5294	5812	6022	5854	5693	5611	5436	5339	5278	5004	4993	4735	4550	4508	4670	5044	5061	4678	4488	4731	4991	5308	5225	5048	5306	5078	4866	4679	4620	4685	4732	4631	4660	4624	4589	4593	4614	4637	4665	4704	4727	4804	5046	5152	5123	5319	5070	4895	4913	4837	4848	4825	4786	4905	4872	4802	4865	4896	5081	5504	5603	5293	5215	5148	5029	5099	5139	4964	5186	5365	5177	4944	5049	5095	5302	5473	5477	5392	5391	5437	5511	5561	5550	5495	5506	5317	5341	5441	5406	5394	5149	5026	5158	5057	5064	5008	4930	5030	5126	4825	4859	4771	4644	4574	4532	4531	4646	4597	4673	4824	4779	4610	4687	4802	4737	4974	4790	4743	4616	4674	4951	4839	4705	4638	4631	4793	4646	4604	4669	4599	4742	4678	4578	4606	4656	4760	4871	4654	4661	4759	4931	5043	5068	5001	4918	4973	4938	4855	4750	4676	4614	4584	4559	4552	4540	4531	4523	4517	4527	4559	4567	4555	4523	4517	4509	4511	4520	4533	4560	4581	4607	4656	4717	4791	4634	4596	4597	4592	4609	4623	4640	4654	4759	4813	4765	4812	4677	4645	4605	4587	4560	4520	4499	4478	4461	4430	4410	4393	4386	4377	4377	4372	4372	4372	4372	4372	4372	4372	4372	4383	4420	4460	4503	4622	4723	4816	4877	4955	5021	4998	4974	4988	4950	4967	4929	4938	4973	4943	4889	4974	4992	4978	4909	4866	4797	4781	4862	4901	4927	4800	4826	4862	4799	4708	4697	4684	4672	4669	4656	4690	4702	4656	4635	4595	4597	4591	4578	4582	4634	4749	4640	4639	4591	4582	4585	4562	4549	4534	4522	4514	4507	4499	4493	4498	4507	4509	4516	4517	4525	4530	4531	4538	4539	4533	4538	4549	4545	4526	4526	4529	4540	4554	4550	4544	4572	4580	4587	4594	4613	4616	4612	4613	4610	4612	4613	4617	4616	4615	4610	4623	4616	4609	4616	4596	4596	4608	4609	4621	4588	4587	4595	4614	4617	4588	4591	4595	4593	4609	4562	4559	4549	4554	4544	4581	4629	4520	4524	4508	4520	4518	4536	4494	4492	4491	4476	4471	4469	4459	4457	4453	4448	4449	4451	4451	4451	4451	4451	4462	4474	4479	4485	4499	4519	4541	4560	4577	4588	4603	4615	4618	4618	4616	4631	4681	4684	4710	4719	4747	4777	4781	4803	4866	4845	4817	4804	4834	4858	4842	4846	4855	4858	4875	4889	4889	4884	4866	4807	4801	4876	4887	4921	4783	4710	4745	4724	4717	4649	4618	4601	4582	4566	4558	4547	4552	4560	4574	4581	4595	4601	4621	4619	4634	4673	4698	4725	4749	4789	4757	4751	4754	4752	4783	4836	4931	5126	5252	4996	4907	4994	4907	4875	4811	4785	4763	4809	4818	4803	4946	4914	4838	4839	4885	4952	5049	5204	5219	5182	5149	5159	5084	5190	5106	5083	5201	5116	5203	5192	5132	5216	5075	5030	5026	5052	4973	4947	4987	4933	4971	5030
4170	4158	4164	4181	4153	4172	4229	4237	4232	4181	4139	4148	4191	4257	4274	4295	4324	4421	4603	4816	4892	4772	4671	4758	4890	4821	4629	4503	4500	4497	4503	4499	4490	4488	4483	4473	4497	4515	4514	4517	4551	4537	4544	4585	4693	4747	4750	4805	4690	4536	4524	4678	4691	4866	5064	4804	4563	4515	4567	4796	4757	4850	4984	4718	4874	4824	4706	4702	4779	4541	4462	4583	4400	4423	4486	4640	4934	5014	4793	4836	4926	5085	5044	5106	5279	5588	5539	5743	5913	5857	5728	5667	5670	5572	5605	5923	5884	5820	5717	5970	5834	5603	5423	5549	5170	5073	5295	5452	5658	5349	4941	4841	4904	5054	5152	5286	5610	5775	5555	5398	5560	5740	6020	6023	5752	5959	6014	5941	5675	5573	5647	5935	5894	5554	5538	5319	4988	4710	4723	5147	5605	5637	6042	5897	5659	5522	5226	5054	4828	4728	4646	4491	4493	4765	5013	4763	4530	4471	4628	4907	5185	4879	4939	4866	4819	4657	4578	4537	4642	4701	4561	4561	4553	4570	4576	4611	4634	4704	4834	4856	4785	4879	5107	5133	5073	4986	4999	4964	4887	4775	4706	4704	4755	4695	4728	4860	4888	5057	5413	5617	5327	5130	4987	4913	5060	5081	4907	5008	5221	4996	4954	5240	5319	5230	5489	5425	5591	5568	5525	5750	5801	5728	5798	5751	5580	5498	5543	5335	5381	5108	4845	5063	5036	4880	4798	4949	4704	4788	4691	4596	4553	4542	4540	4644	4621	4588	4576	4579	4615	4672	4840	4780	4956	4756	4987	4967	4761	4675	4863	4918	5029	4842	4876	4849	4680	4660	4617	4604	4604	4601	4599	4639	4698	4771	4866	4921	4695	4792	4813	4765	4841	4855	4831	4876	4915	4818	4716	4651	4614	4592	4583	4581	4589	4561	4535	4535	4535	4535	4533	4508	4498	4487	4484	4481	4488	4505	4529	4569	4631	4636	4644	4704	4668	4645	4649	4702	4636	4643	4670	4678	4698	4735	4764	4806	4795	4746	4692	4656	4623	4594	4572	4524	4515	4483	4439	4427	4413	4387	4366	4374	4385	4372	4372	4372	4372	4378	4376	4381	4406	4449	4576	4665	4712	4782	4765	4950	5067	4929	4932	4948	4987	4963	5081	4972	4892	4970	5009	4897	4958	5012	4964	4895	4855	4767	4749	4798	4853	4791	4740	4879	4745	4706	4683	4675	4654	4647	4636	4647	4787	4680	4627	4608	4591	4589	4575	4570	4562	4578	4575	4576	4562	4556	4548	4543	4532	4524	4518	4513	4505	4498	4488	4488	4496	4500	4515	4520	4528	4528	4535	4539	4540	4537	4536	4536	4541	4542	4537	4527	4526	4539	4548	4550	4567	4621	4641	4635	4639	4649	4653	4655	4652	4642	4639	4632	4635	4630	4626	4621	4622	4617	4621	4614	4611	4601	4570	4564	4564	4566	4581	4583	4580	4600	4615	4577	4601	4577	4567	4559	4555	4550	4545	4544	4562	4637	4514	4513	4514	4505	4526	4528	4483	4481	4475	4474	4471	4467	4464	4456	4453	4454	4454	4450	4452	4451	4452	4450	4451	4457	4459	4460	4469	4493	4516	4537	4554	4565	4580	4586	4588	4590	4600	4616	4666	4676	4691	4707	4754	4730	4760	4753	4793	4794	4829	4782	4791	4810	4818	4837	4830	4844	4867	4876	4875	4864	4881	4813	4792	4848	4840	4902	4801	4698	4690	4682	4645	4641	4581	4575	4563	4554	4546	4546	4546	4546	4556	4564	4577	4586	4596	4602	4616	4624	4646	4667	4686	4700	4709	4725	4733	4811	4929	5015	5132	5031	5118	5048	4961	4817	4806	4790	4752	4744	4730	4736	4732	4767	4934	4887	4884	4845	4962	4999	5066	5122	5055	5068	5036	5097	4987	5061	5116	4996	5127	5051	5158	5252	5081	5197	5044	4976	4984	4957	4929	4941	4925	4932	4978	5083
4163	4164	4164	4167	4173	4255	4318	4265	4173	4145	4146	4176	4304	4365	4326	4358	4535	4716	4815	4834	4768	4707	4624	4624	4709	4703	4530	4503	4505	4514	4520	4520	4513	4512	4515	4526	4543	4563	4557	4589	4603	4580	4578	4658	4753	4878	4980	5028	4884	4642	4593	4860	4870	4796	5000	4807	4732	4599	4561	4810	4959	4844	4964	4796	4949	4826	4845	4911	4812	4617	4626	4633	4375	4405	4453	4633	4775	4550	4651	4723	4847	4959	5172	5233	5153	5385	5441	5868	5767	5840	5861	5687	5792	5894	5790	5738	5918	5612	5675	5976	5838	5688	5472	5569	5472	5079	4923	5072	5398	5099	4767	4818	5005	5307	5579	5734	5657	5395	5444	5660	5899	6015	6121	5806	5730	5681	5976	6111	5707	5517	5644	5681	5856	5608	5318	5060	4930	4772	4642	5036	5233	5555	5711	5722	5521	5260	5460	5103	4935	4676	4557	4469	4506	4800	4931	4565	4449	4442	4766	5083	5204	4901	4681	4690	4896	4641	4515	4483	4544	4564	4503	4518	4538	4550	4616	4676	4734	4735	4777	4984	4897	4944	5011	5206	5034	4921	4875	4849	4803	4695	4666	4644	4633	4660	4703	4783	4863	5086	5417	5481	5313	5071	4912	4848	4959	4925	4895	5129	5009	4855	5077	5216	5219	5278	5483	5467	5605	5689	5560	5531	5591	5653	5793	5618	5499	5419	5149	5122	5288	5159	4872	4772	4854	4803	4738	4580	4555	4545	4544	4598	4687	4878	4754	4791	4839	4867	4757	4623	4612	4789	4812	4857	4801	4947	5005	4994	4849	4758	5003	4926	4783	4725	4718	4805	4661	4620	4626	4646	4697	4810	4758	4613	4639	4840	4890	4778	4795	4769	4783	4755	4760	4787	4841	4825	4755	4720	4656	4635	4640	4641	4656	4613	4572	4565	4570	4555	4515	4507	4506	4498	4486	4477	4480	4483	4506	4517	4533	4575	4594	4623	4654	4674	4707	4834	4792	4764	4821	4747	4736	4752	4808	4850	4882	5008	4996	4869	4746	4719	4711	4664	4649	4616	4587	4563	4514	4461	4428	4398	4372	4377	4383	4372	4372	4372	4385	4382	4385	4404	4466	4551	4640	4723	4826	4852	4965	5041	4971	4922	4850	4881	4970	5024	5022	4953	4861	4988	4999	4885	4849	4897	4855	4949	4822	4753	4707	4770	4742	4721	4730	4676	4663	4657	4655	4650	4671	4621	4614	4627	4649	4676	4696	4684	4574	4576	4576	4558	4552	4548	4542	4539	4536	4528	4523	4521	4517	4505	4499	4495	4487	4485	4479	4480	4487	4497	4512	4522	4526	4526	4534	4535	4536	4548	4549	4545	4532	4544	4547	4547	4537	4533	4538	4561	4586	4613	4638	4680	4713	4745	4713	4717	4686	4679	4656	4664	4655	4659	4648	4640	4637	4630	4627	4630	4664	4627	4610	4574	4563	4559	4568	4576	4570	4569	4625	4630	4586	4574	4593	4603	4640	4573	4598	4590	4599	4629	4618	4509	4504	4503	4518	4529	4485	4480	4472	4470	4473	4469	4460	4451	4453	4454	4454	4454	4452	4449	4453	4452	4450	4450	4443	4443	4459	4476	4496	4511	4525	4536	4552	4564	4567	4576	4586	4617	4640	4663	4680	4698	4715	4707	4702	4722	4756	4769	4786	4806	4761	4775	4788	4805	4828	4847	4857	4858	4863	4843	4864	4825	4732	4827	4833	4874	4854	4709	4663	4711	4654	4599	4576	4562	4556	4552	4546	4546	4546	4546	4547	4554	4561	4574	4580	4584	4596	4607	4624	4643	4662	4677	4688	4701	4846	4886	4915	4942	4949	4852	4933	4875	4792	4757	4743	4741	4717	4706	4726	4694	4712	4766	4892	4952	4852	4819	4849	4916	5042	5080	4997	4976	4975	4983	4933	5003	5066	5004	4989	4998	5157	5066	5013	5078	4977	4936	4931	4912	4919	4891	4900	4922	4963	4982
4159	4161	4158	4212	4271	4204	4195	4145	4137	4145	4160	4201	4266	4324	4462	4613	4592	4710	4826	4882	4897	4787	4621	4572	4538	4533	4518	4521	4536	4538	4537	4537	4534	4534	4561	4633	4769	4762	4662	4680	4838	4669	4641	4805	5029	4922	5021	5204	5079	4672	4740	5002	5198	5033	5053	4997	4959	4766	4614	4696	4934	4993	5014	4962	5014	4937	5109	5008	4808	4604	4498	4440	4374	4354	4453	4508	4475	4571	4663	4793	5022	5055	5133	5233	5237	5381	5604	5596	5926	6011	5760	5962	5861	5696	5797	5655	5899	5973	5580	5853	6046	5839	5492	5403	5760	5426	5014	4832	5061	4915	4688	4837	5145	5405	5782	5669	5321	5483	5792	6010	5925	5930	5942	5972	6015	5737	5572	5896	5808	5456	5407	5541	5507	5397	5122	4979	4921	4635	4715	4878	5086	5372	5387	5295	5292	5035	5185	4943	4702	4621	4487	4457	4516	4832	4700	4473	4395	4588	4774	4776	4973	4837	4661	4569	4753	4554	4441	4449	4451	4473	4494	4513	4528	4545	4601	4654	4747	4887	4878	4863	5014	5226	5161	5013	4930	4757	4849	4710	4710	4684	4631	4607	4617	4824	4834	4886	4885	5069	5292	5319	5296	5054	4878	4797	4923	4797	5019	4961	4827	4868	4913	4975	5046	5135	5403	5583	5704	5434	5227	5224	5455	5500	5659	5443	5539	5333	5130	4884	4969	4912	4921	4749	4593	4569	4536	4554	4643	4775	4774	4919	4728	4655	4673	4773	4736	4848	4954	4869	4693	4669	4720	4837	4782	5005	4908	5130	5011	4930	4848	4874	4708	4665	4650	4642	4640	4637	4656	4832	4845	4968	4875	4721	4631	4737	4726	4791	4906	4957	4908	4866	4798	4761	4761	4767	4731	4741	4738	4735	4699	4621	4597	4580	4576	4562	4535	4511	4497	4498	4499	4496	4488	4482	4481	4503	4515	4541	4555	4621	4607	4646	4677	4716	4756	4790	4933	4913	4968	4945	4838	4889	5004	5165	5181	5181	5256	5116	4889	4897	4845	4771	4789	4771	4736	4657	4588	4535	4474	4432	4403	4384	4378	4379	4377	4373	4384	4387	4401	4451	4530	4633	4681	4700	4709	4789	4837	4946	4892	4810	4881	4937	4949	4947	4929	4899	4828	4964	5022	4881	4785	4894	4812	4775	4721	4700	4684	4668	4666	4670	4662	4650	4626	4630	4672	4635	4600	4600	4596	4689	4698	4634	4605	4596	4576	4567	4560	4558	4537	4534	4527	4518	4511	4502	4503	4497	4490	4484	4480	4478	4472	4474	4480	4492	4504	4511	4524	4528	4527	4526	4529	4534	4540	4547	4546	4553	4549	4544	4547	4554	4555	4540	4528	4545	4578	4604	4754	4711	4765	4888	4853	4766	4733	4705	4697	4690	4682	4683	4667	4661	4646	4641	4632	4666	4754	4714	4713	4656	4595	4560	4554	4558	4558	4555	4553	4568	4568	4648	4639	4621	4637	4625	4654	4688	4683	4675	4724	4552	4513	4502	4512	4495	4482	4484	4484	4473	4473	4465	4464	4456	4456	4456	4455	4455	4453	4454	4453	4452	4453	4450	4443	4443	4444	4462	4475	4489	4501	4512	4528	4535	4547	4557	4579	4600	4613	4647	4668	4676	4675	4674	4692	4706	4700	4722	4722	4728	4741	4755	4779	4803	4812	4827	4840	4841	4844	4821	4823	4847	4780	4716	4804	4739	4713	4685	4680	4659	4608	4588	4572	4560	4553	4554	4546	4546	4546	4546	4546	4546	4557	4574	4576	4584	4593	4607	4618	4633	4650	4667	4677	4682	4696	4720	4738	4755	4773	4777	4772	4746	4727	4712	4702	4691	4680	4680	4674	4672	4696	4751	4895	4897	4830	4786	4839	4916	4950	5038	4955	4910	4898	4884	4933	4994	5013	5001	4919	5002	5086	5014	4957	4952	4928	4909	4900	4917	4885	4880	4885	4901	4923	4940
4159	4157	4167	4203	4202	4175	4162	4144	4155	4168	4190	4238	4279	4395	4592	4706	4676	4642	4657	4805	4862	4726	4618	4606	4535	4533	4534	4549	4560	4564	4555	4552	4560	4609	4719	4695	4837	4840	4756	4889	4972	4768	4709	4873	5095	5172	5267	5395	5131	4712	4830	5097	5315	5262	5232	5260	5087	4791	4659	4635	4664	4723	4830	4761	4927	5116	5173	4808	4684	4633	4578	4333	4374	4401	4545	4699	4576	4554	4583	4656	4623	4667	4824	5036	5350	5575	5506	5533	5760	5738	5961	5921	5783	5702	5485	5642	5993	5921	5653	5610	5792	5841	5527	5404	5498	5556	5342	5152	4936	4698	4709	4966	5400	5760	5752	5358	5359	5797	5881	6049	5743	6010	5898	5871	5988	5819	5533	5585	5746	5510	5133	5027	5234	5240	5192	5006	4909	4646	4699	5067	5426	5504	5326	5076	4971	4856	4955	4965	4679	4496	4434	4447	4668	4940	4676	4442	4367	4437	4479	4580	4798	4988	4796	4549	4471	4602	4421	4427	4443	4461	4485	4502	4562	4574	4598	4626	4650	4712	4783	4861	4987	5231	5004	4842	4767	4694	4671	4690	4598	4587	4584	4583	4609	4704	4852	4915	5078	4956	5070	4957	4892	4910	4816	4742	4814	4818	4811	4795	4854	5000	5186	5069	5168	5271	5408	5470	5517	5420	5262	5096	5345	5510	5321	5246	5210	5383	5138	4933	4693	4775	4697	4548	4540	4549	4633	4871	4774	5047	4893	5006	4772	4710	4867	4809	4893	4854	4856	5028	4840	4806	4816	4744	4803	4846	5047	5079	4880	4763	4728	4692	4681	4703	4748	4707	4738	4807	4675	4717	4892	4869	4790	4737	4698	4651	4675	4791	4838	4775	4800	4827	4798	4778	4756	4757	4772	4770	4705	4659	4660	4627	4586	4561	4544	4521	4509	4497	4489	4493	4484	4484	4486	4485	4503	4511	4547	4568	4585	4616	4643	4669	4796	4788	4827	4994	4991	5008	4984	5016	5104	4987	5047	5022	4951	5149	5086	5278	5197	5189	5106	5037	5091	5083	4991	4925	4810	4711	4587	4518	4452	4415	4394	4375	4379	4378	4387	4402	4413	4487	4509	4570	4589	4622	4649	4686	4730	4787	4754	4756	4802	4804	4813	4843	4838	4823	4811	4845	4828	4786	4749	4743	4719	4721	4686	4666	4702	4652	4625	4634	4630	4615	4609	4632	4614	4582	4584	4578	4579	4636	4623	4590	4565	4556	4549	4541	4538	4537	4527	4517	4507	4503	4500	4486	4482	4470	4471	4469	4470	4472	4475	4475	4479	4482	4488	4499	4511	4517	4519	4522	4524	4531	4538	4545	4548	4553	4558	4564	4559	4557	4554	4560	4546	4545	4566	4596	4642	4717	4918	4988	4892	4860	4839	4742	4742	4718	4709	4706	4704	4687	4674	4652	4648	4663	4699	4759	4763	4704	4651	4638	4578	4543	4549	4553	4553	4549	4551	4561	4574	4573	4604	4650	4658	4700	4712	4704	4708	4712	4510	4508	4502	4508	4490	4486	4484	4478	4467	4466	4463	4460	4459	4456	4457	4455	4454	4451	4453	4454	4453	4453	4443	4443	4443	4454	4461	4470	4483	4496	4512	4525	4531	4547	4567	4581	4598	4630	4649	4642	4639	4644	4655	4673	4686	4702	4725	4741	4756	4759	4783	4840	4849	4848	4835	4819	4788	4779	4787	4789	4789	4766	4728	4766	4699	4657	4617	4601	4599	4584	4574	4563	4557	4556	4546	4546	4546	4546	4546	4546	4570	4578	4571	4582	4588	4600	4612	4626	4641	4646	4660	4659	4656	4651	4665	4675	4694	4693	4691	4683	4673	4667	4665	4658	4660	4660	4659	4655	4674	4732	4753	4763	4750	4761	4787	4889	4895	4935	4942	4865	4858	4872	4967	4888	4866	4885	4916	4986	5024	4971	4949	4932	4923	4913	4887	4890	4887	4866	4879	4890	4901	4914
4156	4165	4213	4189	4163	4176	4180	4171	4202	4262	4282	4386	4510	4553	4683	4764	4751	4780	4718	4645	4675	4686	4617	4550	4545	4550	4557	4568	4579	4579	4580	4589	4596	4601	4683	4792	4917	4986	4912	5021	5044	4890	4775	5053	5265	5370	5512	5485	5151	4793	5050	5361	5629	5525	5479	5307	5044	4978	5052	4783	4710	4816	4765	4811	4948	5006	4821	4690	4691	4588	4507	4345	4363	4418	4582	4801	4925	4840	4887	5010	4981	4953	5043	5244	5504	5877	5879	6000	5971	5894	5702	5840	5863	5788	5597	5604	5827	6093	5689	5519	5781	5890	5606	5448	5181	5171	5416	5345	5026	4677	4726	5032	5328	5692	5476	5163	5479	5888	6094	5825	5723	6015	5985	5660	5941	5945	5733	5461	5324	5355	5282	4991	5018	5119	5267	5242	4942	4671	4603	5044	5368	5280	5305	5069	4818	4721	4711	4788	4530	4415	4427	4484	4720	4864	4599	4463	4377	4365	4465	4647	4598	4742	4675	4549	4428	4459	4410	4422	4438	4469	4518	4588	4677	4721	4762	4701	4801	4764	4801	5009	5196	5289	5178	4999	4958	4762	4646	4603	4558	4545	4551	4554	4589	4638	4757	4958	5138	4901	4777	4855	4819	4708	4689	4696	4695	4737	4797	4846	5047	5181	5241	5404	5192	5378	5479	5314	5270	5414	5347	4978	5171	5483	5311	5000	4962	5174	4929	4903	4756	4627	4561	4549	4686	4677	4965	4889	5131	5260	5060	5054	4755	4745	4905	4952	5018	5069	4947	4974	4977	5002	5019	4844	4931	4943	5064	5109	4891	4777	4724	4711	4718	4892	4884	4818	4890	5030	4869	4679	4702	4790	4933	4851	4742	4708	4759	4727	4700	4723	4743	4820	4831	4801	4763	4781	4786	4734	4690	4668	4695	4622	4575	4546	4531	4518	4503	4504	4497	4495	4499	4498	4505	4517	4533	4553	4572	4600	4625	4635	4674	4711	4787	4972	5083	5022	4895	4865	4877	4951	5073	4960	4898	4885	4885	4922	5002	5072	5101	4952	5012	4884	4906	4919	5029	4944	4798	4687	4589	4509	4468	4437	4416	4402	4387	4388	4436	4467	4424	4451	4487	4525	4562	4585	4617	4648	4658	4696	4717	4739	4742	4757	4763	4777	4779	4774	4787	4754	4767	4749	4728	4720	4693	4677	4664	4638	4632	4616	4622	4601	4592	4587	4584	4641	4685	4569	4574	4565	4577	4662	4593	4565	4551	4536	4528	4515	4516	4518	4516	4516	4508	4498	4487	4481	4470	4470	4469	4470	4471	4475	4474	4473	4499	4492	4495	4501	4509	4509	4518	4520	4524	4528	4536	4553	4566	4575	4570	4580	4586	4576	4574	4569	4569	4557	4564	4575	4612	4661	4695	4746	4813	4986	4934	4807	4790	4785	4749	4734	4720	4703	4690	4691	4685	4686	4749	4809	4751	4694	4644	4628	4610	4574	4539	4548	4550	4546	4549	4552	4570	4620	4703	4684	4710	4729	4756	4781	4771	4600	4513	4497	4502	4495	4493	4487	4483	4473	4466	4465	4467	4463	4462	4460	4456	4454	4455	4454	4450	4451	4450	4448	4443	4443	4443	4453	4458	4471	4483	4495	4504	4515	4528	4540	4556	4568	4590	4599	4612	4624	4649	4659	4689	4686	4726	4742	4745	4780	4776	4783	4803	4837	4871	4884	4870	4815	4776	4747	4739	4723	4715	4698	4684	4759	4735	4641	4606	4603	4592	4583	4572	4563	4559	4556	4554	4546	4546	4546	4546	4554	4579	4572	4566	4571	4582	4589	4600	4610	4623	4632	4635	4636	4636	4626	4618	4630	4623	4640	4642	4640	4639	4638	4633	4633	4639	4642	4641	4640	4655	4672	4695	4712	4726	4732	4761	4820	4809	4906	4902	4846	4825	4834	4836	4891	4928	4960	4999	5023	5084	5016	4985	4959	4930	4913	4888	4872	4866	4860	4857	4869	4876	4881
4161	4186	4173	4183	4223	4257	4231	4235	4328	4328	4425	4504	4802	4841	4858	4828	4908	4931	4787	4652	4603	4570	4549	4556	4557	4564	4577	4586	4596	4596	4602	4749	4786	4686	4700	4941	5073	5117	5173	5295	5266	5006	4843	5126	5459	5820	5844	5632	5289	4999	5054	5417	5810	5940	5748	5477	5227	5023	4770	4706	4736	4869	4987	4926	5082	5058	4746	4883	4935	4917	4560	4397	4383	4402	4419	4583	4727	4900	5050	5344	5387	5487	5442	5582	5842	5602	5827	5966	5799	5627	5811	6020	5787	5703	5709	5551	5460	5607	5617	5535	5738	5928	5803	5663	5307	5058	4924	4918	4948	4734	4694	5101	5183	5397	5392	5145	5527	5936	6058	5740	5673	6104	5865	5638	5925	5891	5724	5594	5222	5077	5081	5017	4958	5006	5042	5240	4962	4687	4560	4752	4936	5191	5290	5066	4837	4675	4560	4648	4464	4407	4414	4550	4889	4860	4591	4501	4411	4360	4364	4408	4437	4534	4501	4489	4401	4385	4393	4406	4458	4566	4574	4593	4737	4782	4690	4638	4663	4843	4925	5105	5145	5215	5190	5152	4979	4813	4761	4596	4574	4530	4525	4528	4546	4608	4697	4828	4984	4782	4741	4677	4816	4655	4659	4719	4750	4858	5042	5041	5146	5058	5129	5285	5480	5635	5509	5271	5055	5112	5151	4887	4903	5027	5169	4953	4732	4906	4892	4645	4558	4548	4565	4666	4884	4966	4862	5181	5164	5096	5002	4858	4920	4938	4911	5075	5073	5156	5024	5150	5183	5218	5187	4998	5038	5224	5275	5133	4913	4823	4790	4765	4800	5003	4940	4906	4938	4847	4762	4721	4818	4743	4766	4794	4741	4729	4739	4723	4694	4728	4763	4769	4748	4777	4792	4796	4761	4805	4805	4761	4656	4576	4555	4534	4524	4521	4520	4515	4523	4530	4532	4530	4545	4556	4580	4600	4635	4658	4676	4708	4714	4726	4891	5008	4918	4866	4841	4845	4872	4920	4998	4930	4894	4853	4829	4839	4868	4937	4976	4864	4964	4854	4808	4828	4871	4843	4737	4659	4653	4572	4512	4482	4450	4422	4422	4487	4444	4403	4414	4454	4473	4511	4537	4554	4592	4614	4646	4664	4685	4697	4707	4719	4734	4743	4739	4748	4754	4751	4724	4713	4705	4691	4677	4654	4637	4617	4611	4602	4582	4583	4569	4561	4579	4645	4594	4572	4550	4548	4558	4596	4561	4536	4520	4513	4516	4516	4506	4514	4512	4510	4504	4496	4485	4471	4469	4468	4468	4472	4473	4475	4476	4480	4495	4497	4494	4498	4501	4509	4517	4519	4527	4539	4551	4562	4576	4584	4588	4595	4601	4641	4602	4587	4582	4571	4561	4595	4608	4634	4665	4685	4838	4988	5030	4980	4904	4803	4789	4763	4737	4727	4710	4688	4674	4726	4810	4785	4718	4638	4607	4606	4632	4572	4542	4543	4540	4552	4552	4555	4613	4692	4716	4759	4809	4820	4801	4747	4632	4559	4508	4495	4494	4489	4481	4478	4474	4481	4478	4472	4466	4460	4458	4455	4457	4453	4451	4450	4450	4450	4454	4449	4443	4444	4451	4455	4454	4467	4479	4496	4503	4517	4531	4540	4553	4575	4584	4594	4608	4630	4652	4703	4708	4735	4721	4734	4752	4789	4805	4808	4826	4895	4900	4917	4878	4856	4881	4742	4723	4700	4695	4686	4729	4677	4667	4626	4615	4603	4591	4583	4578	4567	4563	4560	4559	4554	4547	4546	4546	4560	4569	4562	4563	4562	4572	4580	4591	4595	4605	4611	4615	4616	4612	4606	4598	4592	4595	4597	4602	4608	4611	4612	4616	4619	4624	4621	4624	4631	4648	4663	4679	4688	4702	4723	4755	4796	4772	4830	4813	4801	4793	4820	4863	4944	5034	5150	5154	5250	5096	5072	5050	5019	4971	4936	4881	4869	4849	4848	4853	4859	4866	4867
4185	4175	4168	4169	4193	4341	4310	4336	4715	4689	4862	4701	4804	4953	4921	4925	4991	5020	4846	4706	4618	4576	4574	4575	4575	4581	4605	4639	4640	4622	4664	4800	5003	4955	4736	4865	5169	5468	5557	5474	5384	5014	5106	5197	5398	5717	5792	5606	5288	5149	5020	5302	5714	5922	5711	5377	5087	4880	4880	4850	4792	4906	5070	5232	5149	5158	5110	5142	5013	4830	4708	4538	4428	4368	4523	4496	4586	4781	5003	5004	4981	5117	5215	5513	5456	5588	5901	5787	5704	5852	6037	6113	6026	5955	5990	5639	5467	5377	5504	5547	5773	5878	5941	5594	5273	5252	5050	4914	4785	4643	4610	4730	5022	5282	5415	5146	5325	5628	5732	5568	5725	5890	5949	5710	5904	5946	5523	5401	5379	5107	4943	4874	4918	5004	4900	4938	4905	4626	4595	4908	5088	5171	5233	5033	4887	4728	4482	4455	4400	4403	4450	4575	4792	4809	4789	4849	4596	4401	4359	4357	4355	4376	4455	4378	4369	4375	4378	4404	4532	4436	4450	4469	4579	4474	4488	4524	4591	4669	4861	5054	5021	4953	5083	5090	4891	4768	4715	4630	4610	4553	4497	4497	4507	4598	4773	4905	4882	4732	4661	4623	4628	4629	4692	4852	5015	4981	5066	5061	4934	5069	5232	5509	5630	5456	5451	5576	5265	4994	4796	4754	4727	4920	4905	5005	4770	4647	4673	4545	4543	4607	4840	5052	4918	5041	5217	5260	5268	5222	5095	5061	4993	5121	5010	4987	5132	5240	5212	5227	5078	5101	5174	5137	5222	5408	5257	5098	4954	4965	4935	4878	4885	4842	4868	4833	4855	4783	4853	4757	4768	4861	4791	4806	4724	4733	4776	4762	4729	4713	4737	4753	4768	4822	4798	4843	4749	4710	4672	4624	4583	4565	4540	4540	4549	4547	4547	4546	4559	4564	4565	4575	4599	4632	4705	4748	4792	4861	4830	4750	4887	4757	4825	4884	4837	4807	4845	4896	4924	4993	4958	4932	4994	4959	4813	4804	4857	4990	4983	4822	4944	4868	4771	4785	4870	4823	4790	4839	4726	4622	4552	4533	4495	4454	4435	4463	4442	4398	4419	4451	4472	4505	4518	4543	4577	4607	4621	4638	4651	4667	4685	4697	4722	4721	4733	4742	4726	4713	4713	4695	4673	4663	4647	4634	4628	4605	4584	4577	4563	4551	4557	4540	4542	4560	4577	4555	4535	4537	4529	4526	4515	4515	4513	4506	4496	4493	4502	4501	4503	4491	4480	4479	4474	4467	4468	4471	4472	4473	4471	4475	4478	4487	4488	4491	4494	4497	4502	4513	4521	4531	4541	4554	4561	4578	4591	4606	4616	4619	4624	4633	4646	4612	4599	4588	4575	4561	4584	4605	4644	4688	4730	4815	4948	4985	4904	4889	4807	4791	4762	4743	4711	4703	4707	4714	4737	4729	4664	4648	4617	4614	4588	4581	4541	4539	4537	4544	4545	4548	4680	4700	4731	4746	4757	4795	4811	4667	4573	4537	4516	4505	4491	4505	4623	4566	4489	4502	4489	4479	4466	4461	4458	4460	4464	4452	4447	4448	4449	4447	4443	4448	4449	4449	4448	4452	4455	4465	4479	4489	4501	4514	4526	4544	4559	4577	4601	4620	4624	4671	4752	4776	4751	4754	4761	4753	4786	4816	4830	4834	4863	4924	4946	4954	4939	4926	4783	4754	4760	4731	4699	4667	4639	4654	4647	4628	4616	4608	4594	4584	4573	4570	4563	4561	4558	4556	4551	4549	4560	4578	4562	4560	4560	4566	4566	4571	4581	4589	4587	4590	4600	4601	4598	4587	4580	4571	4565	4572	4579	4586	4588	4591	4599	4605	4607	4607	4616	4631	4642	4657	4668	4676	4691	4703	4718	4728	4740	4760	4777	4778	4786	4849	4914	5046	5227	5367	5465	5349	5285	5283	5243	5212	4982	4910	4868	4853	4839	4833	4836	4832	4828	4846
4191	4195	4189	4197	4270	4355	4352	4517	4715	4759	4967	4987	5010	5120	5112	5103	5098	4980	4849	4855	4711	4594	4591	4599	4600	4619	4667	4711	4766	4661	4662	4765	4961	5031	4948	4859	5099	5363	5532	5709	5565	5263	5208	5505	5399	5544	5718	5759	5650	5569	5187	5240	5730	5938	5703	5441	5148	5013	5210	5028	4828	4836	5009	5299	4870	4892	4768	4925	4705	4646	4656	4526	4493	4375	4652	4827	5017	4983	4729	4786	4817	4894	4985	5178	5355	5768	5678	5651	5889	5959	5896	5932	6043	5850	5899	5719	5800	5497	5434	5358	5559	5732	5656	5788	5410	5422	5452	5200	5077	4742	4575	4714	4982	5165	5245	5084	5042	5367	5289	5578	6006	5830	5703	5516	5886	6073	5743	5390	5521	5358	5214	4880	4676	4710	4676	4871	4789	4547	4588	4720	4898	5177	4934	4772	4761	4654	4447	4395	4384	4411	4550	4705	4760	4982	5253	4846	4564	4445	4369	4344	4339	4339	4344	4352	4351	4353	4355	4365	4355	4352	4347	4383	4362	4387	4425	4495	4642	4790	4703	4823	4862	4855	4895	4910	4914	4960	4796	4904	4816	4687	4507	4460	4458	4565	4576	4615	4723	4568	4541	4565	4584	4600	4740	4776	4861	5044	4913	4790	4964	5214	5411	5402	5522	5302	5080	5224	5151	5112	4942	4758	4702	4651	4754	4805	4628	4592	4563	4551	4641	4714	4935	5216	5223	5239	5204	5260	5274	5274	5230	5089	5182	5198	5162	5145	5230	5205	5190	5062	5037	4977	5134	4965	5024	5137	5070	4956	4884	4855	4881	4915	4870	4854	4859	4885	4911	4938	4769	4775	4783	4823	4765	4836	4828	4753	4753	4726	4745	4754	4779	4799	4814	4826	4800	4729	4676	4621	4606	4589	4559	4551	4569	4575	4591	4581	4582	4596	4605	4598	4613	4623	4724	4915	4945	4933	4953	4949	4967	4883	4816	4837	4798	4800	4806	4839	4881	4980	4986	4939	5027	4892	4878	4994	4876	4785	4863	4975	4983	4826	4846	4909	4766	4781	4903	4864	4750	4799	4724	4665	4665	4623	4569	4501	4489	4453	4422	4411	4425	4448	4464	4486	4509	4528	4555	4579	4598	4613	4628	4639	4666	4679	4691	4692	4705	4708	4706	4693	4691	4675	4663	4634	4629	4609	4594	4584	4570	4546	4545	4533	4518	4525	4532	4560	4546	4517	4524	4529	4521	4517	4510	4503	4496	4494	4487	4491	4488	4489	4480	4480	4472	4476	4468	4468	4464	4470	4471	4474	4478	4480	4490	4483	4489	4499	4500	4506	4509	4524	4533	4550	4557	4565	4581	4595	4621	4637	4636	4659	4663	4669	4664	4657	4634	4618	4601	4586	4565	4587	4624	4651	4680	4710	4800	5010	5020	4906	4867	4814	4787	4756	4725	4708	4697	4692	4653	4642	4643	4630	4619	4611	4581	4557	4540	4534	4526	4524	4525	4532	4535	4543	4590	4717	4643	4725	4787	4616	4542	4518	4506	4497	4496	4577	4591	4529	4477	4471	4467	4468	4474	4462	4458	4459	4473	4461	4452	4446	4443	4446	4444	4443	4442	4443	4445	4453	4456	4464	4476	4489	4494	4505	4522	4536	4560	4584	4600	4616	4674	4717	4749	4747	4764	4769	4792	4827	4820	4848	4810	4866	4897	4959	4977	4987	4970	4854	4826	4800	4760	4733	4710	4668	4667	4634	4627	4618	4613	4601	4591	4585	4577	4570	4569	4575	4572	4568	4568	4568	4576	4576	4571	4568	4567	4565	4565	4569	4568	4572	4575	4578	4580	4580	4578	4572	4566	4565	4565	4568	4574	4577	4587	4594	4601	4603	4607	4615	4627	4637	4645	4658	4670	4683	4692	4709	4722	4731	4744	4759	4775	4798	4811	4857	4979	5190	5248	5426	5419	5538	5474	5339	5199	5075	4967	4922	4885	4876	4844	4837	4837	4858	4856	4898
4194	4198	4204	4209	4285	4394	4408	4668	4736	4843	4965	5134	5124	5213	5074	4935	4914	4947	4854	4737	4662	4632	4643	4615	4643	4677	4821	4982	4807	4678	4724	4946	4869	5174	5252	5108	4903	5249	5677	5744	5762	5379	5069	5424	5693	5779	5848	5781	5837	5697	5238	5112	5638	5917	5575	5212	5211	5224	4971	4797	4789	5103	4966	5157	4852	4751	4652	4867	4818	4541	4454	4596	4376	4374	4603	5043	5076	4652	4781	5086	5255	5158	5197	5291	5480	5532	5631	5865	6040	5727	5737	6045	5936	5672	5601	5689	5860	5610	5301	5291	5377	5449	5367	5609	5807	5341	5066	4904	4749	4645	4568	4553	4737	5032	4876	5094	4870	4987	5356	5742	5596	5832	5427	5437	5549	5836	5792	5664	5813	5529	5171	4954	4711	4657	4615	4568	4483	4535	4785	4917	5077	5195	4908	4735	4502	4516	4383	4370	4371	4401	4575	4721	4913	5061	4767	4870	4714	4524	4385	4343	4333	4332	4333	4336	4336	4336	4338	4330	4317	4315	4315	4314	4326	4352	4411	4562	4624	4601	4537	4622	4605	4605	4724	4922	4944	4928	4962	5190	5021	4833	4554	4454	4431	4428	4453	4487	4499	4511	4532	4547	4556	4652	4765	4858	4855	4816	4710	4774	4930	5176	5195	5373	5277	5085	4909	4867	4790	4738	4690	4701	4673	4617	4584	4565	4567	4595	4587	4636	4723	4970	4972	4998	5198	5096	5039	5079	5277	5361	5294	5265	5284	5190	5209	5192	5065	5095	4968	4942	5022	5121	5022	4913	5016	5001	4911	4917	4865	4887	4939	4938	4948	5033	5074	4981	4921	4897	4855	4842	4863	4843	4790	4794	4790	4786	4771	4766	4753	4756	4774	4808	4836	4781	4703	4638	4610	4597	4589	4571	4571	4587	4602	4615	4632	4629	4632	4656	4682	4680	4671	4721	4842	4813	4839	4848	4860	4907	4972	4917	4952	4910	4877	4798	4802	4857	4949	5043	4950	4912	5020	5024	4894	4833	4824	4784	4816	4897	5036	4897	4801	4760	4724	4777	4934	4827	4718	4760	4725	4761	4724	4664	4571	4508	4477	4442	4420	4425	4448	4447	4469	4485	4500	4523	4545	4567	4576	4593	4604	4613	4628	4642	4652	4656	4668	4659	4654	4652	4643	4634	4625	4617	4604	4594	4585	4574	4563	4546	4541	4530	4521	4527	4522	4522	4522	4520	4521	4518	4516	4509	4497	4488	4481	4478	4471	4464	4467	4441	4433	4451	4455	4462	4470	4471	4471	4473	4475	4475	4484	4491	4492	4498	4501	4503	4505	4506	4515	4525	4536	4544	4558	4571	4584	4612	4630	4666	4667	4688	4685	4713	4677	4669	4655	4636	4618	4606	4588	4570	4587	4620	4634	4669	4712	4805	4962	4919	4851	4824	4779	4753	4738	4719	4709	4700	4702	4694	4666	4611	4612	4590	4562	4544	4538	4532	4529	4542	4650	4600	4626	4556	4575	4671	4631	4683	4708	4724	4627	4554	4518	4526	4525	4515	4500	4489	4481	4484	4480	4482	4475	4472	4467	4464	4482	4471	4468	4459	4444	4446	4444	4445	4444	4446	4448	4448	4453	4465	4471	4486	4498	4511	4521	4543	4562	4586	4593	4688	4666	4707	4721	4752	4796	4815	4793	4807	4851	4865	4878	4904	4921	4944	4976	5041	4957	4917	4870	4848	4802	4714	4681	4660	4634	4622	4617	4612	4606	4596	4589	4584	4588	4586	4589	4594	4592	4598	4606	4599	4598	4599	4591	4589	4582	4576	4565	4569	4566	4563	4561	4570	4568	4567	4567	4561	4561	4564	4569	4571	4575	4579	4586	4591	4598	4604	4611	4617	4626	4636	4650	4658	4666	4681	4691	4707	4720	4728	4745	4753	4765	4784	4798	4859	5002	5035	5079	5196	5261	5235	5163	5252	5093	4998	4941	4912	4935	4935	4902	4819	4847	4893	4906	4899
4206	4212	4223	4231	4246	4250	4330	4489	4625	4833	4857	4894	4918	5090	5343	5029	4768	4799	4705	4680	4711	4787	4740	4630	4673	4877	4975	4967	4730	4717	4917	5121	5067	5299	5650	5405	5107	5218	5599	5903	5549	5240	5219	5352	5598	5527	5880	5772	5923	5666	5439	5164	5289	5796	5576	5351	5058	4912	4897	4922	4799	5056	5334	5191	5258	5017	4667	4576	4730	4627	4477	4404	4371	4420	4855	5426	4941	4574	4676	5072	5396	5291	5323	5332	5589	5850	5807	5937	5672	5707	6071	5929	5801	5805	5763	5516	5867	5843	5516	5331	5166	5214	5186	5436	5653	5654	5349	5060	5049	4931	4657	4528	4545	4684	4666	4962	4766	5012	5360	5335	5387	5634	5391	5210	5361	5595	5716	5654	5641	5206	4948	4928	4782	4543	4496	4447	4590	4774	4753	4927	5120	5126	4906	4599	4492	4368	4358	4361	4374	4434	4571	4917	5205	4799	4629	4601	4823	4581	4534	4351	4329	4329	4326	4325	4323	4322	4319	4316	4315	4315	4313	4312	4311	4318	4394	4516	4436	4445	4438	4455	4508	4566	4640	4767	4906	5058	5099	4984	4798	4692	4647	4435	4412	4414	4436	4455	4490	4681	4521	4522	4566	4533	4668	4840	4599	4618	4707	4901	5005	5154	5205	5130	5067	4877	4895	4873	4756	4637	4555	4533	4547	4557	4560	4589	4825	4857	4763	4657	4619	4622	4659	4691	4786	4779	4833	5009	5124	5299	5238	5301	5114	5201	5210	5006	4956	4915	5032	5028	5087	4975	4916	4870	5015	4913	4888	4859	4851	4894	4995	5012	5087	5149	5079	5016	4935	4980	4854	4908	4832	4796	4759	4813	4801	4833	4752	4773	4769	4811	4856	4881	4862	4742	4664	4625	4604	4593	4583	4595	4606	4623	4645	4683	4683	4698	4751	4783	4754	4818	4718	4731	4751	4789	4858	4934	4940	4990	5053	4952	4928	4893	4856	4806	4773	4820	4863	4968	4975	4879	4916	4930	4976	4877	4822	4764	4772	4840	4943	5009	4899	4770	4707	4771	4874	4824	4741	4684	4692	4645	4641	4567	4539	4495	4465	4450	4421	4414	4446	4465	4471	4480	4486	4509	4528	4562	4548	4568	4585	4608	4611	4615	4622	4634	4639	4647	4644	4640	4628	4621	4612	4600	4611	4610	4599	4585	4589	4561	4547	4532	4537	4536	4509	4514	4512	4506	4511	4513	4510	4497	4487	4483	4476	4461	4468	4465	4408	4466	4444	4467	4475	4465	4467	4471	4473	4475	4478	4482	4490	4491	4498	4504	4511	4514	4519	4520	4530	4538	4546	4552	4568	4584	4600	4620	4643	4695	4720	4726	4710	4704	4714	4701	4684	4674	4655	4634	4606	4589	4575	4586	4624	4652	4676	4707	4766	4896	4852	4838	4812	4763	4737	4726	4708	4694	4640	4655	4631	4625	4595	4548	4544	4542	4534	4531	4527	4607	4619	4607	4608	4590	4590	4576	4601	4578	4598	4633	4616	4638	4665	4575	4536	4481	4486	4483	4482	4491	4482	4481	4482	4476	4474	4466	4472	4477	4447	4449	4446	4446	4445	4445	4445	4448	4451	4455	4455	4460	4474	4483	4496	4507	4523	4540	4573	4575	4626	4701	4716	4717	4719	4751	4787	4842	4877	4849	4851	4884	4945	4951	4972	5048	5146	5131	5137	5105	5007	4932	4847	4774	4692	4635	4621	4613	4609	4603	4598	4612	4626	4673	4622	4615	4611	4611	4618	4630	4637	4627	4612	4610	4609	4607	4595	4587	4575	4578	4570	4568	4565	4566	4566	4563	4561	4557	4558	4566	4568	4570	4574	4580	4586	4592	4594	4606	4615	4617	4628	4637	4647	4660	4669	4679	4691	4705	4717	4723	4733	4744	4754	4761	4788	4834	4900	4924	4973	5023	5054	5073	5052	5057	5014	4948	4898	5022	5109	5089	4859	4823	5014	5008	4970	4941
4184	4197	4289	4274	4255	4255	4340	4484	4526	4551	4599	4613	4731	4793	4762	4673	4659	4719	4682	4674	4702	4734	4655	4690	4769	4970	5007	5117	4804	4729	4844	5029	5262	5291	5742	5837	5459	5165	5403	5732	5591	5618	5573	5168	5197	5351	5612	5967	5649	5670	5840	5430	5155	5609	5681	5319	5090	5236	5150	4983	4833	5227	5132	4855	4832	4789	4869	4556	4533	4477	4455	4658	4377	4393	4679	5091	4762	4532	4709	4944	4977	5357	5455	5544	5540	5476	5491	5539	5781	6016	5980	5785	6040	6135	6070	5790	5720	5681	5857	5677	5380	5140	5020	5079	5286	5450	5774	5599	5311	5059	4767	4591	4511	4497	4611	4762	4680	4894	5224	5055	5194	5225	5091	4999	5193	5235	5634	5499	5760	5468	5118	4856	4715	4611	4497	4475	4673	4950	4904	5096	5085	4837	4981	4704	4484	4364	4351	4363	4566	4555	4518	4593	4950	4751	4506	4445	4520	4366	4349	4328	4324	4324	4324	4323	4320	4319	4320	4319	4318	4316	4315	4315	4314	4313	4314	4343	4338	4351	4380	4413	4530	4548	4748	4732	4778	4739	4840	4882	4661	4712	4547	4410	4398	4408	4419	4431	4447	4485	4486	4498	4494	4471	4479	4531	4548	4664	4865	5026	5122	5046	4796	4904	4809	4870	4621	4624	4657	4567	4524	4528	4633	4656	4794	4890	4797	5154	5072	5080	4781	4754	4821	4769	4781	4741	4700	4920	5057	5245	5175	5034	5081	5024	5202	5067	4861	4983	5023	4916	4923	4934	4937	4842	4902	4868	4832	4909	4881	4927	5019	5142	5231	5214	5133	5064	4995	4961	4872	4858	4818	4832	4843	4826	4839	4820	4816	4824	4790	4831	4905	4831	4751	4682	4641	4648	4636	4599	4591	4610	4628	4672	4739	4817	4862	4851	4862	4933	4866	4789	4752	4736	4851	4919	4932	4902	4925	5024	5041	4994	5016	4912	4816	4796	4762	4813	4888	5027	5001	4892	4833	4936	5037	4931	4882	4756	4763	4855	4975	4906	4910	4872	4692	4685	4764	4866	4735	4632	4600	4565	4537	4511	4493	4468	4451	4435	4416	4419	4434	4442	4460	4491	4516	4537	4529	4525	4550	4556	4563	4648	4609	4631	4617	4628	4647	4659	4664	4659	4653	4636	4618	4611	4593	4590	4579	4594	4632	4599	4569	4547	4519	4510	4503	4502	4497	4499	4499	4500	4497	4502	4497	4475	4440	4457	4469	4467	4485	4459	4474	4492	4473	4468	4470	4475	4476	4484	4491	4488	4490	4498	4506	4512	4518	4522	4522	4530	4535	4548	4559	4572	4584	4596	4616	4630	4653	4692	4748	4794	4824	4789	4745	4766	4779	4715	4684	4705	4650	4625	4612	4589	4602	4638	4695	4689	4729	4752	4793	4797	4781	4752	4734	4706	4691	4667	4638	4597	4582	4542	4541	4532	4533	4532	4526	4526	4521	4544	4555	4545	4572	4562	4569	4571	4559	4534	4543	4539	4536	4539	4522	4531	4505	4486	4486	4484	4482	4492	4486	4483	4475	4481	4475	4477	4473	4473	4465	4443	4446	4446	4446	4445	4447	4453	4451	4450	4453	4458	4470	4486	4493	4513	4531	4559	4573	4589	4612	4637	4664	4774	4800	4787	4743	4819	4883	4916	4914	4951	5020	5026	5065	5255	5272	5240	5489	5359	5347	5118	4976	4793	4702	4635	4612	4602	4601	4598	4609	4644	4655	4734	4741	4726	4660	4636	4644	4659	4659	4649	4638	4632	4624	4624	4609	4597	4590	4587	4581	4582	4578	4574	4570	4571	4560	4559	4559	4562	4565	4569	4574	4578	4584	4596	4608	4609	4619	4629	4628	4641	4647	4657	4666	4674	4686	4700	4704	4715	4724	4728	4736	4747	4774	4786	4840	4875	4899	4910	4934	4936	4931	4927	4889	4876	4859	4982	4949	4994	4829	4844	4908	4926	4878	4852
4196	4327	4416	4444	4358	4392	4282	4290	4356	4462	4511	4432	4465	4524	4432	4556	4739	4710	4684	4684	4704	4691	4699	4816	4982	5065	5224	5106	4802	4741	4840	5030	5310	5465	5764	5740	5484	5118	5540	5700	5478	5551	5307	5285	5290	5344	5747	5724	5718	5660	5592	5410	5175	5454	5681	5453	5147	5007	5045	4990	4909	5227	4959	4751	4707	4614	4596	4551	4622	4540	4751	4834	4554	4357	4519	4591	4778	4438	4786	4805	5038	5370	5869	5651	5973	5873	5863	5686	5844	5974	5872	5952	5756	5700	5970	6127	5682	5446	5754	5982	5641	5387	5074	4880	4975	5225	5369	5705	5466	5114	4890	4669	4508	4478	4503	4733	4847	4650	4869	4826	5092	5181	4906	4858	5005	5291	5579	5281	5410	5545	5346	5100	4999	4781	4460	4417	4708	4655	4846	5059	4896	4824	4610	4694	4560	4369	4346	4347	4400	4354	4374	4421	4691	4522	4365	4366	4333	4322	4322	4323	4324	4323	4322	4323	4323	4321	4319	4320	4319	4318	4316	4315	4315	4314	4311	4316	4327	4331	4350	4354	4362	4355	4369	4419	4533	4525	4565	4703	4615	4472	4430	4386	4387	4394	4403	4419	4435	4448	4457	4463	4466	4452	4465	4491	4596	4745	4837	4648	4630	4671	4599	4672	4668	4655	4627	4488	4496	4501	4528	4549	4618	4828	5029	5185	4967	5045	5388	5023	5159	4821	4875	5010	5155	4795	4731	4696	4823	4874	4986	4866	5038	4955	4977	4942	4892	5011	4843	4870	4918	4906	4873	4834	4863	4843	4841	4919	4921	5011	5049	5180	5155	5127	5076	4989	4934	4901	4853	4870	4843	4875	4953	4959	4945	4920	4934	4862	4846	4819	4770	4735	4694	4675	4692	4685	4653	4672	4648	4629	4648	4757	4785	4798	4891	4828	4858	4965	4906	4856	4771	4762	4831	4947	4866	4877	4980	4942	5046	4924	4917	5008	4856	4826	4763	4817	4922	4966	5045	4863	4814	4875	5030	4906	4824	4743	4714	4795	4912	4893	4769	4710	4664	4636	4684	4744	4707	4588	4526	4512	4496	4478	4462	4452	4432	4429	4416	4412	4423	4441	4450	4463	4481	4527	4579	4591	4588	4570	4572	4587	4640	4705	4673	4684	4680	4695	4701	4707	4684	4664	4647	4642	4604	4578	4540	4595	4598	4563	4535	4516	4517	4506	4495	4490	4495	4499	4515	4523	4480	4530	4490	4461	4463	4471	4470	4470	4476	4471	4465	4465	4470	4483	4482	4496	4488	4493	4491	4498	4502	4507	4513	4518	4523	4529	4535	4536	4544	4560	4583	4586	4601	4612	4628	4652	4668	4688	4721	4795	4857	4901	4802	4803	4790	4838	4740	4703	4771	4665	4643	4598	4579	4617	4703	4744	4693	4724	4724	4776	4787	4744	4720	4710	4694	4677	4647	4594	4559	4552	4538	4535	4532	4531	4529	4529	4543	4539	4556	4525	4524	4520	4523	4530	4522	4527	4523	4516	4505	4503	4505	4503	4489	4493	4483	4479	4501	4499	4490	4488	4483	4479	4489	4492	4492	4474	4447	4444	4448	4445	4447	4447	4457	4452	4453	4454	4457	4464	4470	4481	4494	4513	4538	4557	4584	4617	4647	4627	4645	4683	4764	4843	4844	4884	4810	4872	5022	5137	5093	5108	5141	5230	5326	5327	5452	5433	5612	5299	5082	4798	4683	4628	4609	4600	4598	4596	4601	4633	4639	4652	4677	4722	4741	4713	4695	4708	4691	4679	4669	4656	4644	4633	4620	4613	4607	4598	4592	4590	4587	4580	4576	4570	4562	4560	4561	4560	4569	4572	4582	4591	4596	4601	4617	4626	4634	4645	4647	4650	4647	4650	4658	4668	4678	4689	4697	4706	4715	4714	4722	4735	4758	4777	4811	4835	4853	4842	4838	4852	4863	4851	4825	4817	4861	4832	4850	4844	4824	4784	4814	4800	4795	4787
4359	4403	4639	4680	4723	4511	4396	4337	4375	4374	4374	4385	4398	4625	4751	4594	4748	4735	4720	4791	4765	4782	4769	4928	5224	5195	5049	5144	4902	4783	5104	5127	5577	5758	5688	5598	5321	5239	5258	5256	5247	5437	5596	5611	5453	5761	5742	5803	5530	5920	5507	5299	5349	5367	5385	5344	5325	5504	5300	5097	5079	5052	4991	4715	4659	4671	4732	4683	5071	4755	4930	4619	4470	4459	4344	4492	4578	4491	4922	5298	5370	5598	5519	5652	5853	5621	5937	5899	5734	5935	5702	5785	6017	5942	5621	5909	5821	5576	5439	5651	5805	5413	5098	4832	4774	4861	5085	5501	5878	5485	5053	4807	4522	4459	4462	4720	4951	4641	4639	4759	5013	4968	4713	4903	5239	5502	5502	5110	5216	5560	5528	5383	5031	4712	4489	4396	4447	4499	4774	4837	4665	4801	4503	4478	4371	4335	4343	4342	4340	4340	4330	4329	4329	4336	4323	4324	4324	4325	4323	4322	4324	4325	4323	4322	4322	4323	4323	4321	4318	4318	4317	4315	4313	4312	4312	4315	4325	4325	4326	4334	4334	4339	4341	4344	4363	4400	4477	4418	4392	4390	4373	4372	4372	4380	4392	4405	4419	4429	4442	4545	4625	4576	4448	4456	4476	4474	4468	4457	4450	4454	4473	4456	4458	4484	4465	4473	4522	4619	4767	4688	4598	4868	4952	5137	5419	5299	5295	5364	5105	4901	5088	5188	5192	4892	4960	4897	4820	4744	4724	4806	4912	4800	4800	4848	4762	4757	4806	4863	4863	4815	4851	4828	4810	4758	4864	4951	5038	5017	5048	4978	4981	4982	4919	4908	4903	4860	4907	4963	4929	4919	4911	4976	4985	4950	4935	4921	4895	4794	4729	4719	4685	4743	4775	4760	4747	4764	4722	4670	4667	4718	4734	4777	4860	4815	4836	4913	4819	4886	4799	4729	4792	4868	4871	4844	4947	4871	5053	4983	4833	4950	4950	4805	4712	4826	4920	4910	5042	4856	4800	4843	4984	4915	4822	4745	4682	4749	4765	4733	4697	4657	4622	4612	4654	4685	4587	4521	4493	4480	4465	4448	4444	4426	4423	4416	4418	4418	4432	4435	4449	4461	4477	4497	4533	4541	4568	4602	4602	4608	4705	4778	4839	4859	4813	4840	4826	4813	4838	4789	4744	4619	4594	4573	4551	4546	4557	4534	4518	4513	4503	4514	4495	4489	4498	4501	4478	4466	4464	4471	4451	4469	4480	4470	4472	4471	4440	4445	4482	4486	4490	4491	4484	4488	4495	4497	4496	4497	4501	4512	4521	4525	4535	4543	4545	4550	4557	4572	4591	4604	4631	4632	4646	4675	4686	4719	4734	4765	4821	4922	4873	4953	4881	4963	4851	4748	4713	4719	4700	4628	4585	4595	4674	4672	4680	4760	4758	4731	4743	4714	4693	4700	4667	4665	4628	4562	4555	4542	4542	4536	4532	4535	4556	4573	4523	4521	4515	4517	4513	4514	4513	4514	4514	4520	4509	4514	4507	4498	4495	4496	4504	4496	4490	4481	4496	4511	4498	4501	4493	4495	4490	4516	4514	4498	4461	4456	4462	4474	4465	4466	4452	4472	4456	4461	4459	4465	4472	4480	4495	4516	4533	4556	4582	4613	4651	4651	4685	4700	4726	4764	4829	4831	4900	5006	5115	5280	5225	5338	5350	5365	5407	5340	5315	5225	5262	5310	5035	4771	4681	4644	4621	4605	4593	4595	4612	4644	4664	4701	4726	4752	4749	4730	4766	4752	4765	4721	4697	4675	4659	4648	4631	4627	4616	4613	4611	4605	4595	4584	4581	4579	4571	4563	4567	4564	4567	4574	4592	4596	4611	4621	4636	4642	4648	4656	4668	4674	4679	4673	4670	4664	4669	4679	4683	4688	4694	4700	4710	4727	4740	4760	4772	4795	4802	4805	4809	4815	4813	4804	4799	4801	4795	4789	4787	4786	4781	4774	4792	4788	4764	4784
4436	4429	4495	4469	4433	4462	4468	4394	4416	4445	4498	4611	4695	4782	4759	4729	4768	4767	4813	5002	4850	4969	4960	5010	5321	5006	4844	4833	4790	4940	5004	5389	5519	5764	5617	5391	5351	5304	5261	5255	5478	5563	5744	5660	5685	5693	5602	5735	5362	5695	5379	5172	5561	5747	5372	5324	5443	5712	5507	5205	5495	5264	4993	4760	4811	4845	5079	4772	4907	5142	4774	4945	4922	4765	4402	4377	4408	4690	4959	5065	4851	5039	5249	5436	5610	5407	5768	5585	5896	6027	5587	5905	5870	5837	5832	5589	5846	5878	5445	5362	5641	5648	5306	5052	4691	4755	5109	5497	5748	5448	5481	5048	4649	4450	4429	4499	4702	4738	4512	4557	4785	4729	4656	4864	5203	5493	5291	4926	5031	5172	5228	5373	5098	4989	4658	4410	4403	4427	4691	4817	4547	4494	4468	4335	4324	4335	4344	4342	4339	4334	4330	4329	4328	4326	4325	4323	4325	4350	4343	4324	4333	4343	4336	4323	4323	4320	4318	4319	4318	4315	4315	4314	4314	4312	4313	4321	4326	4325	4327	4334	4355	4339	4342	4343	4345	4346	4344	4349	4353	4360	4370	4377	4372	4376	4383	4399	4447	4559	4600	4607	4796	4530	4451	4445	4447	4449	4451	4453	4469	4455	4448	4450	4452	4458	4465	4538	4723	4736	4692	4911	4613	4779	4892	5025	5203	5181	5248	5319	5247	5159	5086	5306	5298	5083	4943	5108	5093	5022	4835	4798	4761	4771	4831	4880	4798	4830	4823	4840	4867	4867	4869	4905	4918	4886	4958	4917	4907	4879	4896	4865	4864	4874	4877	4933	5000	4963	5017	5069	5020	4970	4949	4910	4961	4953	4970	4927	4874	4783	4755	4734	4720	4716	4751	4757	4729	4702	4718	4657	4663	4687	4738	4825	4868	4800	4758	4851	4888	4789	4817	4712	4720	4790	4902	4780	4820	4908	4947	5004	4781	4961	4919	4755	4702	4794	4949	4878	4931	4995	4775	4788	4869	4794	4799	4718	4670	4663	4653	4640	4633	4624	4587	4579	4602	4546	4500	4497	4471	4456	4443	4430	4420	4411	4415	4417	4420	4426	4422	4439	4448	4456	4473	4485	4483	4499	4525	4555	4542	4520	4589	4648	4708	4723	4720	4752	4742	4694	4682	4670	4644	4617	4571	4545	4516	4520	4519	4517	4508	4499	4510	4528	4493	4473	4471	4472	4494	4484	4490	4488	4479	4477	4453	4470	4477	4480	4471	4483	4485	4493	4496	4499	4504	4503	4505	4507	4507	4509	4517	4524	4534	4544	4547	4554	4559	4565	4570	4575	4587	4616	4626	4654	4664	4676	4700	4719	4750	4775	4825	4886	5007	5047	5073	4887	4845	4805	4739	4734	4669	4656	4598	4600	4637	4654	4687	4752	4753	4712	4677	4658	4670	4647	4645	4626	4577	4559	4552	4538	4533	4533	4531	4528	4547	4537	4523	4519	4515	4522	4518	4508	4509	4516	4522	4502	4506	4504	4502	4496	4493	4501	4504	4518	4493	4493	4503	4518	4535	4524	4508	4497	4489	4495	4503	4528	4529	4562	4516	4573	4561	4544	4500	4471	4459	4467	4469	4471	4479	4488	4503	4516	4545	4568	4588	4617	4646	4675	4708	4743	4774	4784	4809	4833	4918	5019	5160	5050	5261	5274	5216	5294	5327	5245	5247	5309	5319	4924	4842	4749	4707	4686	4715	4626	4595	4613	4639	4666	4716	4763	4976	4969	4847	4791	4823	4804	4789	4793	4717	4695	4668	4666	4646	4632	4629	4619	4616	4621	4614	4600	4597	4589	4585	4582	4573	4574	4573	4577	4591	4613	4629	4643	4650	4667	4677	4680	4685	4695	4698	4686	4692	4686	4679	4683	4712	4719	4735	4728	4723	4722	4730	4741	4754	4771	4778	4788	4784	4784	4777	4777	4775	4768	4766	4764	4762	4770	4768	4768	4767	4767	4762	4784
4305	4278	4299	4305	4335	4367	4430	4469	4476	4564	4644	4731	4836	4919	4669	4779	4763	4820	5033	5074	4999	5279	5308	5189	5072	4919	5283	5071	4848	4846	5221	5223	5438	5369	5410	5398	5441	5509	5595	5601	5468	5404	5744	5563	5936	5595	5383	5511	5597	5310	5321	5277	5276	5538	5441	5587	5498	5506	5502	5464	5178	4982	4885	4878	5053	5204	5229	4969	4935	5153	5194	4935	4599	4446	4360	4385	4399	4687	4562	4580	4605	4653	4799	5042	5111	5388	5497	5760	6059	5788	5586	5759	6005	5833	5717	5725	5647	5811	5792	5364	5272	5554	5168	4789	4569	4752	4944	5286	5432	5137	5141	4977	4644	4453	4425	4445	4599	4949	4755	4474	4482	4518	4667	4996	5251	5396	5369	4998	4745	4865	5111	4982	4954	4726	4561	4503	4399	4383	4562	4735	4720	4457	4331	4344	4337	4340	4340	4341	4339	4334	4345	4359	4366	4352	4362	4354	4364	4410	4416	4496	4422	4359	4384	4377	4358	4342	4345	4344	4339	4352	4334	4325	4321	4320	4334	4340	4344	4354	4361	4419	4367	4341	4341	4338	4341	4346	4347	4349	4357	4430	4547	4476	4391	4397	4397	4427	4474	4575	4751	4693	4548	4460	4443	4463	4568	4633	4597	4611	4494	4475	4461	4455	4497	4476	4516	4618	4714	4948	4826	5079	4736	4690	4721	4787	4919	5013	4952	5018	5202	5435	5335	5359	5197	5073	5120	5077	5036	4912	4806	4817	4910	4857	4857	4869	4822	4872	4923	4956	4911	4942	4836	4872	4811	4800	4828	4788	4790	4782	4818	4812	4842	4951	4993	5065	5067	5045	4952	4940	4947	4904	4897	4872	4898	4908	4945	4879	4839	4825	4803	4736	4746	4787	4790	4738	4759	4707	4673	4651	4639	4666	4731	4837	4929	4837	4732	4728	4722	4697	4755	4684	4680	4735	4770	4734	4877	4958	4880	4905	4743	4919	4772	4718	4712	4788	4983	4836	4800	4900	4749	4732	4673	4695	4661	4674	4641	4630	4614	4601	4583	4575	4568	4549	4528	4510	4487	4465	4454	4452	4425	4420	4411	4416	4419	4427	4437	4446	4423	4438	4445	4454	4463	4473	4478	4485	4486	4486	4486	4486	4495	4521	4541	4575	4584	4606	4608	4599	4598	4586	4591	4571	4550	4519	4515	4512	4506	4503	4494	4493	4491	4483	4482	4484	4497	4498	4499	4499	4490	4490	4494	4493	4492	4493	4485	4484	4486	4489	4498	4514	4516	4522	4527	4530	4530	4535	4533	4531	4530	4545	4547	4553	4557	4559	4566	4573	4577	4581	4593	4612	4642	4685	4695	4686	4706	4724	4745	4791	4815	4889	4995	5082	5119	4940	4897	4989	4803	4749	4727	4638	4605	4594	4656	4652	4718	4725	4717	4707	4677	4624	4615	4601	4577	4590	4573	4545	4544	4540	4539	4555	4535	4541	4525	4520	4520	4526	4529	4530	4531	4535	4517	4517	4513	4512	4506	4509	4497	4495	4498	4512	4567	4519	4528	4500	4511	4523	4526	4523	4513	4517	4499	4493	4495	4491	4498	4510	4517	4509	4492	4487	4475	4467	4460	4471	4474	4480	4487	4495	4506	4521	4550	4575	4599	4625	4649	4681	4706	4727	4760	4854	4931	4954	5002	4899	4935	4991	5101	5155	5141	5120	5220	5391	5360	5304	5373	5014	4802	4741	4759	4730	4887	4809	4724	4663	4666	4759	4827	4862	4836	4824	4820	4901	4908	4836	4805	4782	4724	4727	4691	4682	4669	4652	4638	4626	4630	4629	4628	4620	4608	4608	4606	4593	4592	4584	4583	4594	4606	4627	4644	4662	4676	4689	4701	4712	4719	4723	4723	4722	4714	4708	4698	4694	4694	4714	4738	4734	4738	4749	4760	4765	4755	4761	4762	4765	4774	4781	4793	4789	4779	4762	4750	4747	4755	4759	4759	4762	4761	4760	4760	4764
4187	4223	4267	4319	4371	4398	4474	4563	4627	4836	4757	4921	5048	4709	4763	4837	5113	4854	5000	5401	5202	5533	5638	5226	4942	5128	5579	5247	4993	4824	5023	5013	5376	5177	5078	5180	5236	5142	5287	5193	5179	5246	5556	5480	5853	5614	5404	5385	5327	5235	5225	5463	5406	5483	5550	5633	5291	5075	5200	5058	5195	5213	5075	5147	5279	5211	4933	4737	4695	4808	4865	4955	4724	4454	4350	4403	4418	4471	4560	4738	4869	5060	5070	5111	5191	5515	5872	5641	6024	5779	5788	5499	5931	5769	5826	5615	5565	5384	5452	5199	5165	5462	5086	4715	4495	4560	4765	5129	5186	4780	4961	4829	4540	4412	4408	4456	4653	5086	5029	4654	4422	4497	4591	4713	4931	5176	5405	5210	4884	4595	4838	4773	4844	4886	4803	4497	4365	4363	4402	4545	4737	4444	4326	4342	4345	4465	4445	4363	4377	4412	4427	4530	4492	4509	4451	4478	4455	4500	4579	4537	4445	4380	4481	4617	4462	4447	4400	4387	4419	4425	4508	4408	4375	4368	4378	4375	4374	4433	4429	4539	4517	4380	4367	4351	4344	4344	4344	4347	4353	4392	4465	4606	4496	4440	4460	4491	4582	4608	4585	4631	4496	4440	4573	4674	4689	4650	4618	4612	4645	4569	4542	4495	4606	4629	4523	4588	4864	4873	5048	5114	4864	4655	4847	4913	4906	4943	5068	5235	5272	5182	5148	5215	5158	5105	5048	4906	4832	4849	4858	4920	4901	4956	4871	4950	5015	4915	4907	4824	4811	4802	4740	4760	4756	4717	4738	4739	4740	4749	4798	4904	4998	5087	5018	4999	4927	4923	4899	4859	4908	4957	4837	4820	4853	4859	4857	4837	4816	4854	4803	4776	4781	4799	4810	4749	4711	4734	4664	4629	4639	4648	4694	4833	4844	4770	4684	4655	4658	4648	4640	4606	4647	4670	4686	4699	4730	4827	4722	4684	4709	4732	4729	4690	4690	4735	4797	4773	4712	4667	4686	4696	4657	4651	4630	4613	4611	4599	4580	4560	4544	4538	4522	4496	4511	4493	4470	4455	4416	4425	4408	4413	4434	4435	4412	4419	4432	4428	4417	4438	4447	4464	4478	4484	4482	4501	4475	4482	4460	4501	4507	4544	4533	4549	4559	4573	4590	4598	4597	4574	4563	4545	4524	4531	4530	4501	4501	4497	4495	4478	4505	4510	4478	4492	4496	4499	4507	4505	4505	4500	4502	4505	4500	4495	4496	4497	4493	4507	4531	4540	4546	4545	4554	4557	4556	4551	4548	4545	4548	4558	4564	4569	4570	4582	4584	4585	4587	4594	4600	4617	4630	4647	4662	4683	4714	4730	4748	4770	4807	4845	4883	4979	5072	5039	4886	4846	4772	4735	4687	4656	4618	4594	4632	4652	4701	4721	4669	4656	4635	4605	4594	4580	4563	4558	4549	4544	4546	4547	4538	4537	4533	4524	4527	4525	4527	4537	4537	4534	4552	4530	4522	4525	4532	4518	4513	4535	4577	4536	4525	4527	4533	4529	4527	4523	4536	4542	4537	4529	4526	4511	4507	4504	4505	4492	4499	4496	4487	4481	4477	4474	4473	4466	4461	4470	4478	4485	4497	4508	4519	4535	4550	4575	4596	4624	4647	4671	4703	4781	4777	4834	4857	4862	4877	4907	4976	5073	5026	5074	5111	5160	5175	5222	5190	5172	5178	4916	4800	4749	4827	4802	4882	4892	4768	4749	4895	4852	4910	4877	4856	4884	4871	4834	4827	4873	4853	4766	4768	4749	4705	4727	4702	4679	4654	4630	4637	4640	4640	4638	4633	4627	4625	4608	4600	4599	4593	4597	4621	4641	4664	4688	4706	4720	4740	4749	4760	4766	4772	4751	4742	4731	4721	4707	4698	4692	4702	4714	4740	4757	4767	4770	4772	4769	4766	4772	4794	4812	4865	4858	4820	4785	4755	4744	4746	4753	4759	4754	4758	4757	4749	4759
4211	4240	4296	4378	4454	4504	4575	4652	4731	4955	5016	5101	4782	4816	4859	4991	5213	5037	5056	5381	5463	5736	5453	5045	5159	5403	5560	5235	4924	4962	4872	4899	4994	4999	5205	5353	5175	5027	5112	5173	5225	5312	5287	5386	5801	5700	5846	5801	5647	5334	5335	5470	5692	5833	5667	5620	5442	5058	4912	4869	4864	4862	4845	5024	5094	4929	4823	4893	4810	4599	4580	4783	4984	4736	4364	4360	4458	4855	5051	5247	5393	5653	5743	5707	5738	5931	5557	5796	5920	5902	5691	5471	5624	5658	6025	5831	5628	5528	5326	5165	4967	5160	5250	4829	4560	4426	4568	4845	5099	4699	4618	4823	4654	4388	4385	4468	4821	5000	4759	4810	4519	4402	4436	4602	5002	4931	5275	5279	4886	4566	4539	4819	4574	4712	4563	4352	4357	4349	4347	4358	4400	4471	4332	4324	4359	4474	4705	4626	4577	4544	4638	4687	4589	4739	4705	4578	4797	4593	4830	4835	4616	4458	4470	4513	4545	4522	4486	4523	4576	4651	4659	4702	4531	4525	4423	4408	4516	4453	4453	4496	4502	4434	4406	4389	4392	4414	4374	4352	4355	4376	4412	4463	4586	4583	4590	4565	4505	4465	4456	4452	4440	4428	4449	4481	4478	4490	4525	4522	4553	4634	4596	4691	4689	4660	4560	4571	4604	4754	4826	4930	4803	4687	4821	4975	4919	4934	5083	5047	5129	5166	4972	5063	5031	4908	4874	4856	4956	4908	4940	5006	4963	4973	4927	4898	4853	4801	4800	4741	4736	4735	4692	4684	4694	4703	4741	4789	4836	4858	4943	4958	4936	4913	4860	4920	4973	4932	4932	4890	4793	4841	4803	4833	4774	4827	4813	4806	4796	4822	4797	4822	4848	4804	4866	4788	4695	4660	4637	4619	4644	4637	4625	4658	4687	4704	4649	4631	4624	4610	4610	4616	4630	4651	4654	4751	4736	4804	4666	4659	4670	4665	4660	4676	4669	4653	4643	4661	4667	4669	4673	4665	4645	4630	4614	4586	4579	4573	4555	4539	4511	4497	4499	4479	4483	4464	4447	4428	4399	4413	4417	4412	4410	4416	4408	4408	4408	4427	4418	4464	4484	4497	4503	4552	4544	4465	4480	4491	4500	4509	4512	4514	4542	4551	4557	4569	4579	4587	4581	4547	4537	4532	4520	4506	4532	4513	4522	4499	4493	4483	4492	4485	4490	4496	4504	4503	4507	4505	4504	4501	4509	4512	4524	4529	4534	4532	4533	4541	4549	4560	4571	4572	4577	4581	4579	4576	4572	4567	4567	4569	4579	4587	4589	4591	4599	4624	4631	4648	4613	4607	4615	4638	4671	4690	4689	4731	4751	4771	4829	4877	4908	4934	5053	5014	4986	4848	4871	4733	4674	4640	4612	4614	4630	4668	4705	4773	4664	4609	4597	4584	4580	4570	4559	4551	4547	4548	4551	4538	4530	4527	4541	4533	4527	4526	4527	4537	4543	4547	4550	4539	4544	4532	4528	4520	4519	4548	4586	4551	4532	4525	4548	4538	4536	4553	4571	4550	4549	4539	4535	4519	4512	4521	4511	4503	4506	4492	4489	4482	4481	4475	4482	4464	4468	4471	4482	4492	4500	4514	4526	4541	4555	4570	4588	4605	4634	4648	4679	4743	4766	4754	4778	4797	4807	4900	4944	4945	4958	5030	5084	5115	5183	5183	5289	5126	4995	4853	4779	4792	4974	4975	5039	5029	4983	4959	5064	5098	5043	5009	4958	4976	4912	4888	4872	4856	4824	4788	4811	4749	4722	4711	4723	4697	4654	4647	4653	4656	4660	4661	4654	4647	4632	4624	4613	4614	4611	4604	4622	4655	4684	4729	4729	4772	4794	4826	4844	4847	4835	4861	4820	4780	4748	4736	4704	4693	4696	4698	4736	4775	4779	4780	4767	4780	4784	4804	4820	4856	4932	4950	4856	4770	4738	4733	4746	4748	4764	4745	4747	4747	4746	4747
4246	4291	4359	4424	4559	4624	4660	4790	4900	5141	5329	5064	4716	4815	5047	5320	5540	5136	5013	5339	5799	5445	5228	5010	5368	5759	5337	5024	5087	5120	4936	4895	4904	4942	4991	4994	5093	5241	5561	5367	5416	5669	5445	5590	5877	5815	5572	5679	5491	5419	5385	5514	5615	5450	5633	5347	5250	5241	5266	5036	4863	4808	4757	4756	4922	5052	5016	5239	4952	4838	4597	4489	4439	4433	4368	4361	4409	4702	5174	5658	5763	5564	5732	5944	5989	5775	5552	5827	5759	6032	5844	5649	5337	5573	5749	5971	5924	5623	5369	5194	4903	4816	5058	5195	4777	4495	4399	4541	4901	4665	4467	4544	4483	4372	4373	4709	4726	4773	4492	4437	4558	4483	4379	4631	4992	4765	4756	4757	4812	4624	4411	4627	4435	4599	4371	4313	4343	4344	4345	4337	4334	4323	4328	4332	4327	4367	4438	4546	4543	4660	4839	4951	4838	4885	4851	4856	4711	4732	4917	4779	4617	4462	4401	4419	4470	4534	4704	4879	4807	4804	4839	4818	4631	4504	4467	4443	4512	4533	4508	4536	4515	4544	4539	4548	4543	4454	4419	4372	4361	4369	4406	4474	4508	4501	4498	4492	4466	4450	4484	4531	4457	4473	4502	4447	4502	4525	4530	4566	4557	4573	4596	4672	4840	4732	4632	4638	4621	4664	4693	4690	4714	4722	4740	4751	4815	4890	4976	4906	4963	4901	4930	4922	4939	4913	4932	4958	4941	5063	4994	4879	4841	4840	4828	4789	4729	4707	4711	4699	4673	4658	4729	4767	4784	4817	4794	4790	4793	4854	4848	4869	4814	4824	4759	4767	4821	4887	4847	4765	4721	4766	4753	4752	4751	4767	4809	4846	4854	4801	4782	4838	4860	4793	4805	4776	4685	4653	4627	4619	4587	4611	4608	4616	4599	4606	4616	4589	4594	4581	4589	4599	4603	4630	4623	4617	4605	4602	4633	4628	4634	4629	4642	4649	4649	4640	4643	4638	4643	4650	4651	4651	4659	4641	4646	4582	4557	4544	4548	4508	4488	4482	4488	4458	4452	4457	4445	4412	4406	4407	4423	4408	4396	4410	4413	4412	4411	4415	4447	4459	4471	4514	4526	4519	4506	4433	4475	4496	4515	4516	4520	4514	4541	4558	4568	4571	4582	4591	4566	4545	4544	4537	4537	4526	4520	4519	4517	4511	4501	4497	4498	4506	4494	4501	4508	4513	4524	4528	4533	4532	4533	4542	4546	4553	4553	4552	4549	4592	4603	4597	4641	4615	4608	4624	4603	4602	4598	4590	4580	4600	4597	4610	4630	4612	4617	4627	4627	4632	4607	4610	4621	4630	4664	4680	4686	4725	4758	4769	4804	4849	4871	4960	5007	4983	4890	4816	4749	4753	4660	4634	4610	4612	4650	4734	4806	4720	4664	4604	4579	4567	4570	4562	4553	4556	4562	4542	4537	4541	4543	4536	4532	4535	4529	4532	4533	4540	4553	4556	4563	4553	4536	4538	4540	4526	4532	4543	4543	4540	4531	4545	4553	4559	4551	4572	4576	4567	4552	4548	4545	4532	4526	4533	4522	4511	4505	4507	4520	4481	4487	4476	4473	4472	4480	4491	4502	4508	4516	4522	4531	4543	4557	4571	4583	4598	4623	4645	4665	4693	4711	4727	4740	4763	4792	4812	4899	4887	4953	5060	5095	5155	5176	5271	5428	5330	4937	4799	4793	4947	4861	4819	4857	5021	4889	4981	5081	5029	5124	5013	5067	5049	5027	4995	5003	4938	4891	4852	4770	4744	4733	4691	4690	4699	4672	4669	4672	4680	4682	4681	4669	4660	4658	4649	4641	4635	4627	4620	4645	4658	4698	4740	4841	4922	4880	5001	5099	4979	4995	5089	4941	4883	4787	4751	4709	4684	4670	4697	4733	4748	4744	4728	4746	4760	4790	4822	4872	4922	4869	4884	4809	4752	4719	4742	4741	4733	4730	4733	4739	4740	4747	4734
4363	4430	4517	4512	4806	4805	4814	4907	5034	5176	4994	4823	4832	4768	4942	5184	5494	5411	5151	5374	5723	5355	5123	5282	5693	5816	5284	5368	5678	5368	5095	4999	5022	4944	5094	5279	5391	5539	5657	5745	5794	5680	5744	5792	5738	5612	5464	5641	5506	5254	5449	5533	5286	5179	5272	5410	5011	5088	5338	5220	5167	5162	5001	4709	4808	5195	5539	5102	4906	4754	4578	4604	4512	4565	4620	4332	4398	4842	5177	5131	5346	5472	5936	5954	5713	5719	5516	5617	5791	5888	5702	5820	5323	5392	5580	5849	5824	5591	5480	5347	5030	4720	4756	5005	4835	4507	4376	4360	4584	4383	4364	4347	4378	4359	4370	4396	4371	4408	4341	4333	4317	4393	4355	4434	4587	4768	4471	4476	4375	4409	4382	4394	4363	4386	4339	4342	4334	4325	4342	4340	4339	4335	4333	4332	4326	4313	4354	4407	4446	4575	4708	4743	4754	4836	4906	4914	4904	4800	4674	4598	4528	4472	4429	4430	4489	4633	4803	5058	5076	4923	4884	4700	4611	4573	4554	4487	4486	4505	4529	4580	4634	4593	4541	4551	4479	4433	4402	4381	4376	4382	4393	4417	4499	4534	4522	4499	4468	4448	4463	4493	4451	4504	4486	4456	4438	4472	4510	4550	4616	4593	4659	4678	4724	4715	4689	4696	4813	4915	4816	4759	4814	4803	4799	4903	4976	5043	4936	4874	4860	4843	4819	4900	4995	5134	5174	5212	5107	5052	5041	4938	4822	4818	4762	4743	4726	4743	4727	4734	4665	4644	4708	4762	4794	4775	4862	4714	4694	4721	4731	4750	4718	4700	4696	4688	4637	4668	4704	4717	4706	4722	4753	4730	4742	4770	4802	4857	4886	4783	4791	4837	4833	4749	4708	4714	4680	4670	4620	4604	4595	4603	4615	4587	4566	4543	4554	4575	4670	4766	4641	4625	4607	4614	4618	4618	4594	4603	4597	4607	4609	4615	4630	4630	4634	4624	4625	4629	4660	4672	4704	4718	4702	4690	4718	4568	4532	4506	4499	4474	4467	4456	4434	4439	4385	4380	4413	4418	4412	4406	4423	4407	4409	4405	4425	4425	4430	4446	4458	4478	4496	4489	4471	4448	4461	4464	4486	4501	4490	4506	4522	4535	4554	4544	4560	4569	4588	4573	4564	4553	4542	4541	4540	4542	4537	4528	4535	4518	4507	4504	4524	4505	4516	4522	4525	4527	4531	4536	4546	4544	4554	4561	4571	4593	4606	4616	4630	4615	4660	4650	4648	4632	4640	4620	4631	4633	4660	4611	4606	4622	4630	4620	4633	4639	4635	4647	4678	4685	4631	4658	4629	4629	4648	4676	4710	4749	4776	4782	4807	4841	4907	4920	5012	4906	4862	4804	4795	4692	4663	4633	4605	4660	4682	4793	4720	4658	4621	4599	4580	4564	4562	4565	4564	4566	4571	4550	4544	4546	4553	4543	4545	4573	4580	4569	4575	4573	4575	4560	4575	4555	4544	4566	4550	4545	4552	4572	4568	4562	4553	4548	4544	4556	4579	4593	4587	4574	4568	4563	4556	4547	4541	4534	4522	4517	4515	4506	4514	4491	4483	4479	4476	4485	4504	4517	4528	4533	4540	4540	4549	4558	4575	4584	4592	4612	4625	4650	4667	4679	4720	4719	4738	4756	4796	4818	4887	4888	4955	4993	5077	5226	5223	5488	5497	5139	4868	4747	4789	4781	4760	4765	4855	4894	4901	5102	5041	4890	4956	4890	4901	4936	5004	5034	5063	5083	5065	4996	4848	4807	4720	4690	4679	4676	4690	4708	4697	4703	4709	4701	4692	4695	4692	4674	4664	4652	4639	4628	4653	4635	4666	4712	4870	4946	4936	4955	4987	5055	5066	5284	5203	5077	4953	4797	4723	4692	4671	4656	4686	4707	4704	4729	4754	4782	4813	4886	4956	5010	4909	4834	4733	4701	4695	4701	4712	4714	4716	4723	4726	4730	4732	4735
4428	4525	4606	4629	4897	5095	5146	5283	5084	4920	4812	4874	5008	5142	4795	4925	5180	5562	5499	5565	5897	5658	5220	5389	5583	5821	5810	5900	5730	5484	5279	5275	5346	5019	5025	5180	5655	5804	5660	5747	5542	5828	5970	5750	5676	5802	5619	5479	5328	5492	5586	5572	5288	4999	5104	5177	5137	4936	5338	5051	4927	4992	5022	4754	4740	5148	5591	5276	4941	4827	4703	4787	4741	4837	4514	4360	4394	4737	4649	4831	5238	5670	5820	6074	5777	5631	5382	5525	5714	5950	5592	5373	5250	5197	5450	5745	5666	5334	5062	5123	4793	4589	4680	4623	4452	4372	4421	4351	4351	4329	4336	4339	4341	4346	4359	4335	4335	4337	4335	4339	4337	4347	4357	4341	4320	4426	4396	4349	4351	4335	4331	4346	4264	4336	4348	4337	4360	4344	4341	4340	4339	4334	4334	4333	4335	4341	4321	4358	4388	4441	4503	4574	4640	4675	4772	4771	4795	4835	4705	4563	4505	4483	4453	4434	4496	4707	4875	4972	4957	4840	4839	4808	4694	4623	4553	4539	4574	4572	4598	4648	4620	4671	4570	4504	4469	4440	4417	4418	4399	4414	4411	4443	4443	4535	4488	4503	4523	4487	4450	4453	4467	4470	4480	4445	4529	4499	4534	4536	4560	4654	4641	4679	4751	4923	4790	4795	4842	4985	4893	4924	4982	4920	4860	4887	4903	4969	4898	4863	4870	4812	4855	4940	4955	5020	5053	5044	5007	4961	4868	4836	4813	4783	4782	4763	4823	4789	4769	4715	4675	4648	4697	4689	4735	4689	4701	4613	4602	4599	4612	4648	4643	4635	4618	4638	4641	4581	4649	4656	4664	4681	4712	4749	4774	4779	4752	4803	4771	4752	4751	4820	4749	4675	4708	4734	4714	4747	4611	4584	4569	4580	4556	4558	4551	4540	4554	4626	4755	4867	4754	4650	4633	4631	4634	4620	4605	4617	4612	4631	4615	4615	4629	4638	4637	4639	4657	4674	4682	4752	4751	4769	4733	4700	4624	4579	4530	4486	4471	4448	4436	4417	4405	4408	4422	4412	4419	4411	4402	4416	4424	4412	4409	4419	4413	4429	4436	4452	4469	4491	4504	4449	4463	4435	4463	4472	4480	4489	4489	4508	4538	4555	4584	4585	4573	4595	4588	4583	4578	4577	4565	4564	4563	4558	4548	4541	4555	4562	4523	4538	4531	4522	4562	4530	4537	4541	4541	4545	4560	4564	4572	4595	4602	4611	4634	4650	4706	4888	4817	4740	4689	4664	4667	4649	4688	4684	4679	4677	4730	4719	4677	4675	4656	4662	4708	4697	4684	4629	4653	4698	4700	4708	4640	4662	4703	4748	4805	4764	4851	4796	4869	4886	4952	4863	4832	4842	4748	4693	4653	4626	4605	4632	4702	4694	4643	4615	4604	4580	4570	4570	4571	4564	4573	4575	4567	4566	4550	4554	4558	4552	4553	4552	4555	4567	4587	4583	4581	4572	4586	4564	4556	4567	4557	4564	4548	4572	4577	4572	4569	4591	4583	4563	4587	4603	4595	4583	4576	4572	4557	4554	4548	4543	4538	4517	4522	4506	4499	4483	4485	4483	4491	4502	4523	4547	4564	4570	4579	4579	4580	4593	4603	4614	4625	4633	4640	4655	4652	4665	4748	4781	4736	4756	4787	4819	4864	4980	5046	5007	5101	5208	5371	5539	5241	5010	4792	4712	4666	4658	4723	4687	4768	4811	4911	5073	5007	4873	4895	4844	4843	4854	4861	4898	4992	4914	4945	4850	4782	4721	4691	4684	4691	4701	4706	4743	4725	4736	4737	4734	4728	4729	4728	4701	4682	4673	4667	4649	4641	4631	4637	4655	4678	4701	4727	4757	4791	4842	4900	5131	5123	4935	4833	4761	4727	4737	4668	4652	4654	4677	4683	4706	4758	4806	4867	4982	4916	4783	4720	4697	4683	4681	4693	4701	4700	4705	4708	4709	4715	4715	4727	4732
4532	4653	4776	4837	5058	5266	5062	4946	4907	4882	5017	4980	5271	5353	5009	4836	5106	5231	5586	5911	5912	5648	5228	5476	5776	5983	5766	5574	5626	5501	5599	5318	5079	5274	5188	5061	5161	5337	5367	5511	5583	5932	5694	5841	5985	5742	5678	5666	5355	5722	5380	5173	5153	4969	4901	4982	4892	4923	5213	5149	4875	4757	4776	4698	4725	5152	5653	5599	5377	5365	4957	4845	5122	4697	4511	4454	4374	4440	4610	4849	5264	5507	5734	5994	5777	5451	5146	5344	5639	5976	5674	5219	4995	5008	5366	5627	5752	5516	5114	4800	4840	4534	4548	4396	4342	4325	4334	4334	4343	4333	4336	4338	4335	4334	4332	4340	4343	4377	4378	4409	4485	4362	4338	4349	4334	4332	4339	4336	4327	4368	4329	4330	4348	4370	4415	4473	4411	4339	4336	4336	4338	4318	4325	4336	4356	4363	4335	4363	4370	4407	4445	4478	4505	4548	4563	4590	4610	4635	4597	4569	4565	4542	4550	4527	4478	4633	4818	4824	4733	4666	4696	4655	4612	4617	4584	4591	4606	4634	4625	4625	4585	4601	4557	4497	4442	4436	4424	4423	4431	4442	4465	4446	4450	4450	4488	4491	4451	4497	4485	4501	4486	4471	4486	4507	4557	4568	4546	4607	4580	4670	4674	4728	4779	4811	4877	4882	4946	5093	5131	5088	4960	5088	5153	5076	4909	4945	4824	4774	4760	4763	4828	4880	4888	4920	5021	5109	5053	5101	5000	4998	4928	4895	4809	4827	4830	4739	4727	4732	4698	4621	4721	4684	4682	4646	4624	4589	4578	4559	4562	4569	4565	4571	4573	4614	4580	4598	4644	4644	4637	4698	4768	4807	4817	4794	4741	4763	4738	4705	4724	4725	4665	4633	4647	4628	4598	4611	4556	4540	4538	4535	4547	4558	4542	4553	4568	4611	4704	4810	4738	4688	4677	4673	4678	4682	4701	4707	4699	4687	4727	4706	4683	4667	4676	4708	4716	4735	4748	4872	4850	4813	4874	4714	4655	4583	4501	4454	4450	4446	4424	4424	4421	4421	4414	4420	4416	4417	4426	4411	4414	4416	4422	4422	4436	4435	4464	4477	4484	4474	4487	4442	4449	4464	4474	4478	4485	4500	4504	4528	4560	4594	4617	4580	4572	4585	4578	4599	4591	4592	4592	4593	4581	4565	4553	4556	4577	4592	4541	4584	4545	4578	4542	4545	4550	4554	4552	4552	4594	4603	4674	4720	4693	4812	4725	4711	4763	4949	5087	5083	4879	4695	4731	4842	4797	4751	4864	4908	4966	4990	4896	4774	4751	4764	4803	4736	4744	4758	4674	4661	4672	4661	4649	4654	4675	4694	4711	4721	4775	4757	4818	4897	4925	4852	4808	4735	4691	4688	4631	4611	4648	4656	4666	4636	4617	4593	4594	4576	4577	4574	4574	4568	4572	4580	4573	4560	4578	4569	4566	4556	4566	4564	4563	4573	4603	4585	4581	4585	4587	4584	4570	4569	4595	4561	4585	4594	4581	4599	4602	4598	4583	4578	4597	4622	4605	4594	4589	4584	4571	4564	4554	4543	4535	4522	4519	4508	4506	4503	4512	4516	4522	4538	4558	4576	4604	4616	4622	4623	4617	4618	4631	4642	4648	4658	4663	4669	4683	4683	4825	4794	4728	4776	4851	4841	4897	4975	5011	5015	5159	5234	5407	5548	5291	4922	4750	4674	4629	4606	4652	4656	4663	4843	4794	4923	4911	4866	4820	4821	4815	4808	4819	4843	4834	4845	4796	4779	4770	4708	4696	4699	4707	4722	4730	4762	4770	4765	4771	4788	4779	4776	4765	4742	4722	4702	4686	4668	4657	4642	4637	4636	4647	4668	4685	4706	4734	4791	4927	4899	4873	4810	4776	4728	4709	4681	4650	4637	4659	4662	4664	4688	4711	4744	4759	4757	4727	4698	4675	4664	4665	4671	4685	4688	4696	4693	4693	4699	4703	4711	4793	4768
4722	4767	4950	4966	5159	5147	5289	5121	4921	5085	5407	5219	5511	5598	5179	5040	4925	5235	5602	5808	5655	5857	5451	5316	5632	5918	5681	5545	5462	5473	5329	5363	5466	5630	5328	5280	5285	5390	5366	5322	5308	5647	5653	5617	5928	5733	5686	5437	5548	5758	5551	5472	5216	5276	5230	4883	4857	5145	5346	5107	5074	4915	4666	4700	4723	5014	5479	5592	5729	5631	5192	5001	5410	5012	4944	4553	4357	4461	4684	4912	5031	5321	5712	5788	5639	5452	4988	5044	5408	5714	5546	5136	4831	4814	5146	5243	5623	5496	5115	4755	4738	4748	4432	4363	4346	4331	4332	4324	4345	4361	4450	4516	4463	4396	4427	4418	4537	4450	4431	4619	4897	4575	4437	4505	4418	4391	4412	4395	4356	4399	4443	4414	4423	4370	4429	4428	4344	4341	4380	4350	4358	4354	4337	4333	4331	4351	4381	4353	4367	4395	4418	4447	4478	4505	4532	4567	4604	4640	4657	4684	4666	4843	4700	4631	4554	4537	4606	4584	4566	4590	4568	4557	4571	4568	4562	4576	4603	4582	4560	4524	4536	4505	4472	4478	4469	4460	4455	4439	4462	4468	4504	4538	4517	4578	4590	4519	4545	4647	4584	4533	4474	4473	4483	4503	4517	4595	4654	4683	4610	4625	4673	4769	4836	4942	5018	5170	5354	5287	5183	5125	4956	4994	4954	4893	4802	4771	4788	4764	4734	4790	4870	5006	4939	4986	5015	5058	5052	5027	4942	4864	4874	4835	4841	4774	4796	4793	4770	4851	4838	4687	4603	4618	4626	4609	4580	4566	4546	4544	4544	4528	4525	4548	4543	4557	4574	4572	4596	4657	4688	4760	4808	4851	4798	4771	4726	4712	4735	4671	4655	4630	4622	4609	4593	4565	4543	4527	4526	4521	4531	4539	4593	4598	4539	4548	4572	4619	4661	4705	4821	4817	4743	4755	4807	4851	4855	4750	4807	4721	4818	4877	4731	4800	4744	4863	4853	4820	4814	4885	4983	4873	4764	4679	4600	4508	4457	4427	4421	4417	4419	4422	4423	4437	4420	4416	4412	4412	4412	4418	4409	4425	4420	4435	4449	4465	4478	4494	4480	4398	4416	4442	4451	4473	4477	4486	4498	4510	4518	4560	4603	4611	4628	4580	4591	4592	4602	4609	4612	4615	4612	4606	4595	4599	4588	4579	4601	4590	4604	4575	4589	4604	4562	4562	4573	4568	4564	4571	4570	4579	4598	4613	4643	4708	4694	4795	4784	4801	4883	4830	4767	4730	4829	4931	4943	4871	4897	5123	5320	5238	5048	5028	4977	4990	4951	4891	4825	4814	4786	4772	4760	4738	4736	4735	4737	4740	4688	4708	4723	4737	4778	4783	4784	4760	4719	4694	4660	4638	4619	4602	4641	4636	4630	4609	4602	4589	4582	4581	4579	4580	4579	4577	4573	4585	4585	4574	4587	4583	4584	4592	4605	4578	4574	4587	4611	4595	4593	4586	4593	4579	4582	4589	4583	4573	4597	4602	4614	4604	4600	4601	4589	4587	4626	4617	4607	4602	4595	4588	4576	4566	4561	4554	4534	4528	4520	4529	4536	4542	4551	4546	4569	4590	4609	4625	4638	4658	4662	4666	4665	4666	4670	4672	4683	4689	4694	4701	4719	4716	4736	4787	4738	4767	4803	4814	4872	4908	4997	5063	5232	5213	5357	5307	5033	4847	4685	4634	4600	4596	4604	4618	4648	4690	4729	4756	4773	4756	4808	4819	4827	4817	4780	4794	4776	4760	4744	4733	4745	4732	4714	4726	4745	4756	4761	4773	4825	4819	4812	4823	4844	4826	4821	4790	4761	4750	4709	4693	4676	4666	4649	4642	4638	4649	4664	4682	4701	4719	4751	4751	4743	4717	4706	4692	4675	4645	4634	4635	4655	4655	4653	4661	4653	4674	4678	4666	4656	4647	4643	4650	4660	4661	4673	4672	4682	4690	4719	4703	4714	4715	4726	4727
5066	5051	5026	5148	5124	5377	5537	5160	4965	5203	5733	5759	5821	5744	5512	5182	4969	5069	5374	5529	5535	5666	5714	5399	5392	5494	5645	5625	5669	5565	5360	5629	5955	5936	5529	5524	5427	5423	5672	5890	5409	5471	5591	5689	5786	5625	5485	5593	5522	5447	5301	5148	5230	5177	4950	4908	4826	4941	5141	5162	4992	4854	4897	4599	4906	4994	5211	5659	5791	5526	5638	5362	5085	4946	4726	4525	4336	4497	4802	5154	5565	5709	5764	5734	5355	5111	4891	4747	5043	5392	5460	5024	4747	4641	4735	5004	5453	5489	5248	4895	4556	4562	4501	4350	4331	4333	4337	4492	4481	4436	4542	4748	4678	4753	4716	4550	4626	4733	4514	4655	5017	4744	4648	4679	4773	4735	4614	4443	4453	4378	4370	4479	4553	4469	4510	4407	4389	4377	4385	4384	4374	4368	4354	4378	4481	4541	4438	4365	4374	4390	4417	4446	4523	4550	4557	4591	4633	4687	4752	4960	4829	5024	4918	4772	4629	4499	4511	4512	4518	4535	4557	4573	4569	4579	4587	4600	4583	4579	4557	4553	4524	4485	4490	4492	4534	4525	4492	4557	4487	4559	4600	4542	4604	4598	4589	4608	4584	4535	4513	4506	4508	4550	4557	4586	4545	4564	4604	4596	4625	4682	4721	4811	4917	5126	5252	5241	5148	5061	5071	4991	4865	4803	4815	4787	4734	4720	4750	4742	4725	4744	4781	4829	4837	4865	4922	4922	4894	4906	4908	4804	4864	4814	4789	4764	4743	4733	4790	4772	4749	4678	4619	4587	4592	4602	4571	4544	4522	4504	4503	4494	4496	4523	4532	4546	4559	4598	4619	4662	4734	4817	4896	4823	4748	4681	4673	4697	4672	4660	4634	4666	4608	4589	4577	4561	4544	4533	4533	4525	4527	4542	4612	4636	4557	4557	4561	4602	4673	4729	4892	4808	4843	4958	5002	5098	4872	4929	4786	4834	4932	4919	4910	4966	4889	4945	5059	4964	4986	5031	4924	4776	4670	4600	4549	4501	4456	4421	4428	4408	4418	4416	4429	4416	4425	4411	4416	4412	4409	4426	4423	4427	4453	4450	4470	4480	4495	4485	4430	4428	4413	4445	4447	4487	4492	4499	4519	4557	4587	4598	4610	4601	4577	4580	4594	4609	4620	4632	4638	4637	4654	4624	4632	4647	4651	4711	4669	4656	4739	4619	4598	4596	4585	4649	4626	4594	4582	4588	4596	4614	4605	4633	4641	4660	4675	4700	4721	4823	4901	4917	4771	4894	4957	5014	5089	5055	5018	5113	5246	5390	5248	5133	5078	5023	4990	4923	4865	4849	4809	4794	4774	4763	4757	4753	4747	4746	4676	4688	4695	4722	4780	4697	4708	4713	4670	4651	4634	4621	4609	4633	4631	4615	4605	4598	4593	4592	4590	4590	4582	4584	4590	4585	4589	4589	4595	4598	4598	4597	4606	4611	4613	4596	4613	4590	4596	4607	4600	4591	4616	4598	4584	4600	4599	4590	4608	4619	4619	4615	4613	4610	4606	4602	4608	4633	4627	4614	4600	4591	4585	4574	4568	4561	4559	4553	4529	4547	4576	4591	4596	4600	4616	4651	4678	4703	4686	4705	4713	4721	4730	4721	4717	4712	4715	4719	4730	4737	4724	4716	4697	4743	4773	4758	4779	4790	4833	4946	5045	5134	5139	5068	5214	5233	4977	4828	4694	4635	4599	4599	4597	4609	4634	4660	4684	4707	4716	4724	4746	4807	4793	4785	4781	4761	4779	4755	4732	4718	4712	4725	4742	4759	4779	4802	4807	4814	4828	4851	4885	4910	4913	4913	4892	4864	4825	4791	4765	4733	4705	4686	4673	4663	4653	4645	4643	4655	4672	4670	4676	4668	4676	4674	4663	4656	4650	4637	4618	4627	4641	4637	4636	4645	4654	4652	4637	4635	4638	4632	4640	4657	4671	4673	4683	4689	4699	4707	4728	4734	4749	4752	4744	4750
5177	5144	5353	5279	5208	5404	5638	5262	4900	5208	5589	5976	5896	5733	5744	5606	5198	5115	5201	5182	5208	5379	5612	5674	5684	5671	5812	5781	5850	5495	5543	5960	5869	5614	5488	5770	5848	5406	5720	5862	5598	5550	5923	6129	5787	5726	5691	5326	5180	5099	5061	5045	4990	4897	4903	4894	4811	4818	4878	5158	5266	5059	4785	4597	4709	5070	5261	5411	5784	5418	5303	5123	4788	4508	4453	4480	4333	4549	4825	5178	5534	5375	5834	5881	5635	5300	5044	4697	4679	4969	5064	5188	4998	4728	4493	4776	5110	5170	5244	4865	4659	4431	4392	4338	4338	4330	4454	4914	4945	4734	4572	4752	5007	5111	4942	4804	4997	4750	4606	4686	4962	5083	4860	4887	4797	4628	4550	4611	4563	4494	4383	4352	4423	4403	4374	4388	4425	4481	4480	4423	4418	4415	4416	4385	4436	4442	4406	4385	4397	4402	4433	4466	4497	4542	4587	4636	4681	4772	4861	4892	5038	4978	4860	4771	4591	4480	4479	4496	4505	4507	4500	4556	4581	4595	4609	4622	4617	4601	4578	4566	4551	4544	4549	4567	4587	4697	4609	4653	4596	4621	4695	4637	4648	4643	4560	4537	4522	4503	4507	4527	4594	4645	4666	4594	4533	4568	4571	4572	4644	4680	4761	4864	5044	5156	5153	5141	4998	4889	4828	4811	4939	4751	4712	4685	4696	4765	4842	4849	4773	4713	4740	4795	4807	4860	4892	4898	4787	4850	4923	4935	4893	4881	4912	4855	4786	4790	4700	4734	4679	4623	4601	4599	4572	4540	4515	4513	4530	4508	4489	4494	4495	4507	4513	4554	4613	4658	4670	4722	4739	4735	4774	4713	4687	4702	4702	4674	4705	4682	4634	4628	4621	4596	4576	4564	4547	4534	4526	4520	4527	4544	4569	4615	4607	4568	4559	4602	4648	4747	4768	4944	5039	5065	5230	5108	5161	5052	4876	4915	5105	5040	5004	5020	4990	5029	5018	4968	4873	4889	4799	4726	4594	4557	4536	4487	4446	4419	4417	4423	4440	4424	4422	4424	4428	4422	4423	4419	4421	4422	4443	4431	4441	4455	4457	4476	4490	4414	4437	4466	4483	4482	4479	4500	4521	4547	4551	4586	4606	4607	4555	4586	4564	4614	4606	4615	4625	4634	4649	4671	4701	4702	4726	4735	4727	4684	4651	4717	4854	4757	4842	4838	4714	4607	4611	4602	4602	4582	4575	4626	4625	4680	4763	4845	4754	4728	4731	4733	4758	4836	4846	4976	5169	5183	5238	5067	5028	5125	5315	5352	5244	5263	5179	5115	5062	4979	4964	4896	4855	4822	4795	4783	4771	4762	4758	4749	4668	4669	4674	4683	4702	4661	4650	4643	4636	4629	4615	4608	4616	4630	4627	4614	4615	4609	4607	4605	4606	4603	4594	4607	4604	4604	4605	4605	4603	4615	4615	4606	4607	4614	4627	4639	4643	4611	4616	4621	4616	4611	4612	4609	4614	4612	4617	4635	4631	4643	4633	4626	4625	4625	4615	4626	4639	4654	4637	4617	4615	4604	4598	4596	4588	4582	4571	4582	4676	4700	4674	4645	4678	4695	4723	4773	4825	4828	4830	4805	4762	4790	4817	4792	4781	4762	4745	4756	4759	4760	4752	4783	4732	4734	4781	4766	4761	4773	4788	4860	4955	5019	5012	4963	4990	5022	5029	4746	4657	4623	4605	4609	4599	4599	4627	4648	4660	4668	4679	4706	4726	4790	4781	4761	4773	4744	4751	4725	4714	4717	4739	4757	4782	4801	4838	4851	4859	4884	4896	4939	4998	5113	5013	5100	5125	5102	5042	4985	5007	4878	4785	4730	4699	4681	4654	4641	4633	4633	4637	4641	4637	4636	4639	4639	4637	4628	4618	4618	4609	4614	4614	4620	4627	4617	4620	4612	4615	4616	4626	4632	4648	4665	4680	4691	4705	4706	4713	4735	4751	4770	4785	4783	4781	4775
5156	5655	5572	5437	5472	5287	5187	5053	5028	5363	5716	5624	5608	5920	5590	5572	5394	5056	5479	5770	5561	5494	5725	5838	5769	5670	5758	5709	5522	5462	5814	5769	5762	5620	5822	5847	5745	5476	5799	5832	5653	5808	5960	5864	5738	5870	5695	5700	5617	5467	5477	5535	5320	4984	5216	5392	4978	4764	4700	4739	5118	5332	4887	4720	4540	4748	4792	5176	5296	5402	4931	4996	4892	4514	4409	4325	4382	4534	4593	4805	5036	5282	5573	5663	5710	5232	4930	4805	4493	4589	4812	4884	4806	4803	4475	4483	4611	4699	4919	4688	4394	4319	4364	4351	4360	4383	4531	4791	5011	5061	4879	4755	4858	5084	5321	5196	5016	4814	4931	4765	5046	5137	5079	4937	4859	4864	4778	4734	4568	4422	4422	4422	4423	4424	4401	4419	4469	4509	4453	4476	4485	4480	4473	4462	4453	4445	4431	4428	4426	4443	4461	4498	4527	4566	4642	4731	4765	4774	4940	4948	4816	4747	4695	4572	4502	4480	4485	4500	4509	4571	4549	4578	4614	4636	4655	4670	4710	4781	4758	4677	4714	4733	4747	4746	4710	4769	4617	4691	4645	4686	4645	4608	4563	4578	4535	4508	4508	4553	4550	4589	4593	4710	4606	4597	4551	4565	4600	4633	4708	4752	4885	5013	5003	5031	4904	4905	4844	4804	4743	4710	4745	4684	4671	4652	4758	4845	4851	4842	4755	4694	4722	4800	4830	4799	4801	4788	4773	4894	4979	4889	4850	4853	4807	4800	4813	4802	4735	4691	4641	4598	4583	4560	4566	4560	4522	4528	4520	4504	4500	4487	4487	4485	4491	4541	4571	4606	4640	4670	4679	4686	4687	4671	4649	4693	4747	4744	4766	4788	4732	4670	4697	4628	4619	4587	4569	4552	4529	4530	4532	4548	4553	4638	4634	4634	4579	4595	4645	4658	4814	4923	5018	5221	5232	5104	5097	5036	5031	5073	5061	5039	4991	4940	4850	4904	4817	4790	4735	4663	4653	4613	4506	4517	4503	4461	4447	4420	4416	4429	4424	4425	4425	4423	4428	4420	4416	4401	4377	4418	4453	4460	4466	4443	4456	4460	4444	4452	4448	4456	4458	4472	4498	4518	4549	4560	4584	4606	4623	4553	4605	4581	4595	4602	4617	4631	4647	4661	4672	4680	4680	4677	4713	4742	4745	4738	4736	4740	4760	4827	4783	4727	4670	4648	4636	4610	4608	4620	4621	4633	4687	4684	4692	4728	4784	4783	4773	4799	4797	4861	4821	4838	4890	5027	5253	5206	5138	5349	5443	5385	5390	5346	5340	5260	5118	5085	4968	4923	4850	4838	4812	4797	4786	4773	4764	4760	4683	4653	4656	4662	4674	4635	4626	4619	4613	4613	4611	4613	4624	4633	4652	4644	4625	4626	4627	4625	4642	4658	4638	4619	4622	4609	4610	4621	4628	4636	4628	4626	4631	4631	4632	4645	4641	4640	4637	4630	4622	4615	4615	4623	4646	4667	4668	4703	4737	4667	4641	4649	4651	4640	4635	4638	4663	4652	4646	4641	4628	4624	4612	4607	4604	4606	4597	4634	4662	4759	4684	4787	4752	5040	5007	5161	4946	5087	5284	5096	4823	5073	4917	4914	4857	4828	4800	4791	4791	4794	4779	4762	4743	4737	4795	4805	4754	4761	4783	4815	4859	4869	4855	4892	4870	4848	4849	4683	4645	4638	4620	4614	4607	4592	4610	4630	4639	4659	4664	4687	4708	4737	4746	4727	4733	4730	4729	4721	4706	4723	4775	4805	4866	4912	4946	4982	4988	4990	5008	5136	5206	5168	5181	5345	5348	5196	5239	5198	5217	5143	5014	4767	4817	4715	4665	4662	4645	4625	4611	4616	4612	4614	4613	4623	4615	4609	4623	4599	4591	4591	4594	4592	4594	4596	4604	4598	4610	4623	4635	4649	4654	4679	4696	4706	4706	4724	4731	4786	4791	4875	4888	4890	4841	4839
4963	5426	5925	5696	5314	5130	5258	5074	5092	5324	5286	5444	5930	5846	5930	5791	5560	5206	5438	5730	5838	5852	5762	5788	5893	5677	5545	5512	5576	5666	5829	5870	5831	5708	5899	5764	5622	5583	5769	5979	5817	5830	5807	6034	5703	5610	5923	5884	5770	5833	5577	5375	5151	5322	5645	5519	5196	4960	4841	4680	4853	5251	5179	4906	4698	4512	4706	4893	4888	5276	5024	4617	4524	4429	4410	4317	4399	4805	5003	5074	5146	5059	5177	5250	5659	5341	5044	4946	4631	4377	4570	4487	4421	4357	4353	4336	4316	4357	4425	4374	4327	4333	4333	4348	4389	4520	4621	4725	4787	4951	5273	5081	5040	5195	5433	5223	5115	5122	4942	5054	4974	5069	5007	4985	4857	4828	4707	4576	4526	4550	4471	4455	4456	4454	4457	4472	4570	4555	4535	4556	4568	4570	4592	4581	4541	4531	4491	4494	4470	4472	4489	4529	4610	4642	4689	4778	4959	4860	4795	4727	4641	4632	4553	4484	4453	4476	4497	4520	4518	4534	4569	4621	4714	4719	4717	4770	4803	4888	4878	4800	4772	4682	4610	4642	4673	4577	4528	4565	4510	4548	4520	4508	4504	4522	4493	4507	4540	4548	4633	4610	4570	4587	4570	4584	4589	4596	4630	4686	4781	4889	5014	5003	4844	4902	4735	4713	4668	4670	4662	4640	4635	4638	4631	4642	4677	4738	4709	4731	4687	4646	4688	4731	4756	4717	4699	4744	4724	4736	4758	4694	4672	4688	4699	4704	4702	4702	4677	4638	4621	4595	4564	4536	4538	4527	4531	4531	4512	4500	4489	4493	4477	4471	4477	4509	4540	4571	4644	4702	4682	4744	4723	4670	4635	4680	4740	4766	4795	4832	4787	4776	4781	4720	4630	4605	4590	4578	4545	4534	4533	4536	4544	4580	4668	4618	4593	4599	4676	4687	4761	4889	5049	5164	5024	5078	5020	4967	4946	4978	4944	4916	4828	4799	4782	4735	4833	4763	4764	4705	4599	4457	4477	4470	4472	4454	4437	4430	4418	4439	4428	4426	4424	4420	4421	4426	4403	4423	4403	4469	4503	4481	4427	4443	4456	4448	4452	4452	4455	4465	4492	4499	4512	4544	4621	4603	4633	4610	4641	4597	4572	4587	4624	4631	4635	4643	4664	4678	4694	4698	4696	4695	4715	4711	4679	4749	4746	4802	4766	4773	4689	4664	4665	4687	4735	4697	4753	4781	4768	4731	4747	4784	4729	4872	4823	4830	4840	4849	4861	4914	4967	4861	4897	4870	4938	4984	5124	5126	5115	5103	5390	5489	5307	5292	5354	5343	5148	5116	4886	4838	4829	4817	4795	4786	4774	4762	4682	4650	4642	4637	4658	4616	4615	4614	4613	4610	4611	4619	4633	4646	4658	4663	4646	4654	4673	4707	4697	4673	4649	4638	4622	4622	4624	4636	4648	4654	4649	4655	4676	4659	4670	4661	4659	4658	4653	4641	4676	4711	4648	4624	4635	4701	4799	4792	4729	4703	4704	4677	4657	4657	4656	4661	4680	4687	4680	4667	4650	4637	4632	4629	4630	4629	4647	4723	4740	4777	4765	4802	4849	5064	5255	5482	5141	5116	5019	4902	5003	5172	5169	5063	4956	4936	4873	4832	4834	4828	4803	4774	4762	4751	4785	4775	4753	4756	4764	4794	4800	4794	4779	4778	4782	4761	4739	4694	4660	4644	4638	4632	4612	4600	4606	4613	4628	4637	4646	4662	4688	4707	4715	4711	4704	4705	4709	4699	4694	4739	4817	4944	4977	5105	5081	5088	5063	5146	5208	5289	5296	5394	5315	5313	5167	5252	5152	5031	4970	4925	4877	4991	4848	4693	4674	4673	4677	4641	4629	4620	4597	4597	4594	4595	4593	4590	4582	4577	4580	4579	4580	4582	4586	4587	4596	4600	4615	4625	4643	4658	4672	4690	4715	4731	4724	4727	4733	4767	4836	4901	4950	4957	4936	4885
4984	5522	5799	5430	5313	5534	5467	4977	5062	5206	5428	5806	5930	5741	5955	5745	5645	5373	5356	5607	5728	5746	5930	5862	5735	5648	5713	5912	5831	5751	5745	5888	5820	5795	5973	5863	5768	5684	5883	5861	5798	5716	5740	6068	5707	5639	5960	5781	5620	5773	5736	5622	5516	5786	5616	5394	5215	4948	5210	4856	4639	4847	5265	5131	4800	4558	4485	4572	4803	4892	4803	4602	4448	4397	4313	4321	4333	4699	4766	4624	4720	4886	4770	5066	5317	5139	4730	4567	4479	4344	4334	4335	4329	4349	4335	4331	4433	4360	4350	4362	4387	4630	4450	4356	4447	4876	5101	4811	5078	5096	5023	4854	5023	5235	5024	5072	5107	5007	5028	5098	5027	4916	4838	4820	4768	4630	4574	4593	4536	4494	4474	4484	4493	4498	4529	4557	4595	4633	4658	4667	4662	4675	4740	4806	4745	4699	4605	4590	4538	4523	4536	4609	4728	4724	4859	4747	4767	4709	4656	4590	4552	4525	4506	4482	4483	4510	4527	4544	4577	4604	4673	4803	4795	4773	4800	4824	4848	4840	4784	4659	4640	4570	4534	4503	4505	4494	4474	4459	4469	4471	4492	4475	4472	4486	4553	4567	4566	4592	4578	4604	4583	4558	4566	4555	4561	4613	4686	4820	4887	4790	4808	4827	4765	4649	4634	4641	4603	4630	4609	4597	4594	4596	4617	4601	4620	4628	4634	4635	4643	4648	4665	4675	4682	4651	4648	4660	4691	4669	4643	4617	4607	4617	4599	4640	4631	4639	4586	4583	4564	4568	4538	4507	4515	4518	4509	4511	4494	4499	4501	4475	4477	4462	4463	4486	4514	4550	4610	4658	4730	4772	4673	4641	4630	4651	4686	4719	4779	4801	4843	4888	4791	4801	4685	4639	4652	4652	4574	4558	4521	4541	4550	4563	4599	4652	4615	4612	4632	4664	4716	4814	4909	4880	4873	5029	5150	5050	4967	4894	4845	4808	4794	4796	4846	4798	4740	4708	4620	4518	4467	4446	4440	4449	4448	4439	4440	4427	4421	4433	4426	4421	4427	4443	4468	4472	4494	4538	4469	4524	4536	4455	4452	4448	4458	4446	4471	4465	4518	4504	4505	4521	4564	4611	4670	4704	4661	4630	4636	4639	4621	4638	4664	4678	4677	4671	4686	4688	4716	4724	4715	4719	4720	4784	4785	4778	4931	4958	4815	4717	4696	4699	4711	4700	4706	4724	4791	4860	4887	4878	4839	4790	4807	4928	5003	4939	4994	5034	5059	5038	5005	4944	4912	4928	4925	4934	4969	5028	5097	5012	5039	5228	5503	5347	5170	5065	5218	5100	4915	4853	4857	4837	4814	4747	4701	4682	4670	4656	4643	4631	4622	4618	4615	4613	4613	4612	4613	4624	4638	4653	4671	4676	4687	4727	4740	4694	4670	4659	4643	4642	4642	4638	4640	4660	4674	4682	4700	4673	4672	4687	4701	4683	4675	4672	4676	4669	4655	4689	4661	4657	4647	4686	4778	4754	4725	4686	4675	4696	4687	4680	4689	4684	4718	4757	4723	4699	4666	4650	4643	4649	4649	4658	4731	4884	4929	4908	4962	4965	4941	4981	5191	5272	5112	5002	4960	5042	5294	5532	5647	5343	5162	5064	5038	4994	4868	4876	4827	4792	4781	4755	4762	4765	4782	4796	4786	4805	4761	4759	4778	4747	4715	4723	4700	4680	4668	4660	4649	4649	4640	4650	4646	4638	4645	4656	4661	4682	4689	4706	4698	4678	4680	4683	4683	4685	4688	4742	4819	4943	5123	5209	5376	5334	5283	5234	5142	5082	5038	5145	5139	5124	4966	4972	4949	4892	4855	4880	5081	4922	4734	4692	4666	4690	4680	4633	4619	4603	4587	4578	4576	4571	4573	4567	4570	4564	4570	4572	4569	4577	4578	4586	4598	4619	4627	4649	4664	4678	4696	4709	4729	4740	4758	4781	4789	4790	4790	4809	4828	4858	4868	4876
5314	5746	5648	5587	5712	5565	5257	5119	5393	5142	5168	5575	5634	5625	5714	5870	5811	5477	5388	5563	5784	5895	5716	5874	5919	5941	5953	5826	5717	5651	5682	5770	5835	5655	5754	5769	5915	5722	5824	5937	5692	5563	5557	5627	5486	5829	5991	5800	5723	5579	5995	5903	5754	5940	5668	5416	5209	5364	5440	5156	4812	4615	4927	5292	5229	4842	4555	4447	4422	4480	4815	4583	4458	4373	4418	4325	4321	4490	4411	4503	4535	4560	4610	5026	4858	4604	4763	4397	4326	4340	4454	4609	4683	4617	4682	4706	4887	4816	4576	4464	4613	4983	4618	4411	4413	4641	4902	4978	4761	4768	4890	4718	4983	5003	4927	4890	5045	4979	4875	4863	4882	4826	4847	4734	4654	4614	4602	4572	4564	4527	4507	4514	4526	4542	4599	4659	4709	4811	4839	4819	4768	4874	5093	5081	5058	4919	4783	4686	4606	4574	4558	4649	4734	4804	4770	4671	4603	4571	4552	4510	4497	4491	4450	4486	4511	4542	4574	4584	4637	4713	4863	4940	4973	4979	4973	4924	4880	4852	4771	4625	4560	4538	4518	4496	4477	4467	4442	4430	4413	4414	4411	4426	4449	4455	4475	4521	4514	4562	4607	4623	4553	4547	4538	4547	4576	4625	4758	4804	4853	4786	4650	4642	4602	4580	4550	4567	4556	4550	4551	4581	4569	4578	4584	4610	4586	4588	4604	4608	4618	4624	4656	4653	4625	4615	4611	4610	4668	4625	4598	4580	4572	4568	4586	4601	4581	4584	4557	4552	4508	4532	4520	4522	4503	4500	4492	4579	4481	4495	4474	4468	4461	4467	4462	4467	4494	4532	4619	4681	4631	4642	4629	4602	4627	4624	4652	4706	4717	4749	4768	4829	4810	4706	4655	4648	4676	4744	4605	4510	4530	4548	4585	4558	4601	4699	4669	4699	4652	4662	4672	4717	4758	4811	4928	5107	5030	4950	4906	4852	4840	4862	4836	4850	4807	4736	4676	4578	4527	4481	4471	4453	4453	4457	4457	4464	4453	4463	4459	4457	4446	4444	4422	4429	4503	4556	4643	4613	4500	4511	4479	4467	4471	4464	4447	4447	4469	4484	4537	4549	4609	4634	4674	4776	4774	4706	4685	4678	4686	4785	4716	4716	4703	4741	4718	4709	4767	4770	4752	4774	4737	4734	4742	4781	4889	4895	4863	4789	4745	4727	4730	4735	4760	4759	4747	4784	4781	4828	4835	4844	4825	4841	4901	5003	5055	5093	5038	5174	5083	5148	5156	5153	5028	5093	5006	5072	5076	4988	4991	5041	4967	5015	5135	5226	5466	5098	5011	4961	4897	4901	4870	4837	4748	4704	4692	4678	4668	4654	4642	4631	4621	4616	4615	4613	4612	4612	4618	4631	4646	4664	4679	4701	4729	4717	4685	4682	4683	4677	4666	4659	4655	4647	4661	4688	4710	4717	4737	4727	4735	4746	4713	4698	4689	4695	4710	4713	4698	4715	4686	4682	4684	4676	4678	4684	4705	4705	4690	4712	4712	4694	4715	4733	4746	4739	4729	4702	4677	4665	4665	4668	4672	4683	4715	4825	4880	5063	5087	5141	5226	5103	5139	5215	5247	5255	5088	5133	5373	5208	5267	5230	5308	5081	5040	4931	4932	5027	4940	4927	4964	4799	4773	4796	4814	4804	4806	4829	4777	4789	4791	4813	4749	4739	4709	4700	4687	4670	4699	4714	4716	4703	4692	4701	4692	4687	4696	4722	4730	4745	4729	4691	4666	4661	4666	4681	4691	4714	4756	4868	4964	5094	5085	5265	5197	5057	4954	4888	4881	4968	4966	4918	4880	4854	4857	4813	4785	4782	4784	4739	4692	4661	4673	4669	4666	4618	4596	4588	4571	4567	4565	4556	4547	4551	4555	4557	4560	4562	4564	4571	4578	4586	4590	4634	4645	4665	4686	4698	4709	4735	4764	4774	4810	4843	4844	4830	4856	4918	5005	4942	4932	4953
5638	5745	5744	5890	5813	5598	5220	5234	5541	5295	5444	5369	5551	5898	5888	5683	5632	5584	5397	5608	5940	5789	5643	5999	5809	5842	5863	5674	5616	5510	5642	5924	5872	5721	5529	5695	6053	5913	5903	5752	5747	5694	5701	5568	5448	5638	5758	6063	5872	5488	5709	6005	5668	5623	5923	5767	5613	5683	5733	5395	5135	4750	4573	4815	4858	5041	5033	4661	4498	4375	4438	4416	4550	4488	4497	4327	4328	4319	4307	4315	4343	4430	4586	4559	4431	4391	4374	4323	4342	4523	4847	5134	5180	4878	4901	5236	5479	5190	4773	4669	4942	5267	4976	4561	4405	4506	4795	4649	4669	4538	4687	4719	4684	4736	4723	4784	4916	4863	4779	4720	4747	4702	4742	4678	4661	4669	4619	4616	4599	4576	4548	4543	4553	4569	4652	4767	4828	5096	5268	5082	4957	5080	5169	5394	5293	5091	4961	4788	4658	4640	4575	4586	4688	4667	4633	4573	4535	4517	4501	4482	4477	4485	4468	4488	4551	4646	4712	4768	4809	4854	4822	4879	4876	4879	4900	4929	4779	4746	4666	4623	4583	4557	4521	4499	4475	4460	4437	4428	4422	4435	4429	4436	4436	4428	4444	4462	4480	4527	4561	4530	4532	4553	4574	4571	4576	4636	4670	4796	4735	4646	4584	4547	4555	4516	4527	4535	4527	4518	4525	4542	4549	4554	4576	4590	4565	4573	4590	4592	4637	4608	4565	4615	4579	4600	4574	4592	4596	4582	4575	4563	4541	4542	4645	4572	4584	4540	4547	4534	4492	4492	4487	4486	4485	4492	4486	4488	4474	4471	4465	4477	4470	4464	4460	4472	4478	4502	4532	4547	4563	4565	4586	4590	4614	4602	4601	4626	4669	4719	4732	4784	4753	4690	4724	4675	4619	4610	4559	4537	4541	4555	4614	4596	4571	4623	4688	4658	4650	4673	4705	4733	4791	4785	4838	4908	4954	4901	4900	4913	4863	4876	4836	4748	4698	4643	4608	4570	4499	4472	4487	4544	4481	4471	4488	4492	4495	4502	4502	4488	4487	4504	4522	4529	4543	4606	4650	4566	4520	4499	4489	4486	4485	4479	4468	4461	4458	4467	4674	4716	4810	4736	4841	4785	4738	4768	4753	4757	4770	4821	4798	4935	4811	4768	4768	4790	4797	4857	4848	4839	4764	4767	4777	4873	4909	4791	4765	4755	4756	4760	4771	4794	4840	4848	4822	4807	4791	4781	4799	4813	4862	4832	4889	4920	4951	5099	5060	5075	5037	5008	4982	5029	5090	5093	5171	5008	4981	5040	5041	4984	5023	5100	5076	5005	5022	5109	5061	5038	4978	4850	4770	4746	4753	4693	4680	4670	4659	4649	4640	4630	4624	4620	4618	4616	4616	4617	4627	4640	4655	4673	4694	4718	4719	4729	4719	4710	4709	4697	4695	4682	4666	4672	4693	4727	4766	4788	4788	4801	4805	4793	4738	4711	4704	4709	4738	4729	4746	4723	4734	4717	4715	4705	4698	4711	4713	4722	4713	4723	4729	4764	4794	4804	4779	4818	4825	4725	4699	4690	4689	4690	4693	4707	4721	4759	4920	4892	5013	5115	5138	5365	5317	5319	5347	5475	5182	5312	5368	5258	5185	5109	5061	5041	5055	5028	4947	4978	4933	4857	4856	4818	4807	4822	4822	4823	4828	4821	4802	4796	4815	4906	4819	4842	4761	4746	4706	4690	4706	4867	4878	4818	4772	4764	4730	4732	4758	4815	4846	4890	4841	4688	4654	4653	4658	4669	4672	4693	4736	4812	4842	4880	5118	5123	4943	4908	4852	4826	4819	4825	4844	4830	4810	4800	4781	4758	4742	4731	4703	4690	4652	4644	4646	4622	4609	4594	4585	4569	4557	4552	4550	4540	4534	4544	4547	4540	4541	4554	4556	4563	4572	4588	4609	4626	4641	4668	4690	4710	4733	4769	4802	4877	4957	4958	4938	4904	4963	4936	5062	5083	5050	5012
